ply
format ascii 1.0
element vertex 504
property float x
property float y
property float z
property uchar red
property uchar green
property uchar blue
end_header
-49.1009 -5.5677 -184.885 0 255 0
-51.5279 -6.21293 -180.198 0 255 0
-54.9056 -5.37564 -176.178 0 255 0
-58.6514 -3.02926 -173.221 0 255 0
33.444 25.1856 4.64778 255 255 255
-7.59211 -30.581 -52.2998 255 255 255
42.9507 -69.6257 43.2383 255 255 255
-25.5019 38.5758 41.6037 255 255 255
75.2752 -61.7832 -22.2954 255 255 255
-18.9208 -55.4925 51.4047 255 255 255
-18.8498 57.6358 -1.12892 255 255 255
3.59581 34.5322 -13.7407 255 255 255
72.0122 33.4662 47.0484 255 255 255
-15.312 16.6489 12.6702 255 255 255
29.2468 56.4939 -50.2139 255 255 255
24.5556 46.4068 20.5844 255 255 255
-18.6538 10.5121 39.0244 255 255 255
17.2982 15.8769 -35.6807 255 255 255
69.0778 -30.7045 -3.76917 255 255 255
-0.854919 26.3906 -2.19072 255 255 255
-1.91575 19.4261 79.9746 255 255 255
49.6929 19.8103 36.2466 255 255 255
38.0411 31.4795 -17.6161 255 255 255
69.7079 -47.0049 33.7777 255 255 255
64.6083 53.2327 8.91366 255 255 255
-6.05277 14.3744 19.3526 255 255 255
24.1803 -61.4472 47.4131 255 255 255
90.3065 -65.6366 25.7349 255 255 255
61.0604 31.0754 -25.8263 255 255 255
54.2274 56.7674 57.043 255 255 255
-49.2372 -5.28815 -27.4522 255 255 255
57.2192 -44.7931 14.0774 255 255 255
19.2662 -11.0046 -44.2764 255 255 255
57.4533 20.625 56.3581 255 255 255
-59.803 -64.4423 -18.8579 255 255 255
25.4831 -18.7833 52.2041 255 255 255
-11.2322 39.5313 68.0387 255 255 255
77.782 -66.5397 32.3123 255 255 255
-25.0714 -46.1531 9.03743 255 255 255
12.9259 -38.2548 66.1732 255 255 255
68.1618 17.2106 9.90141 255 255 255
0.682154 -22.5906 22.439 255 255 255
9.97546 -66.4217 -48.7837 255 255 255
-10.1945 -33.5936 65.7579 255 255 255
10.0984 31.1931 -9.28415 255 255 255
27.0734 -60.9655 -21.3144 255 255 255
-18.529 -53.3287 85.906 255 255 255
31.2308 53.6275 -36.6806 255 255 255
19.5411 2.50502 23.2185 255 255 255
29.3015 11.0848 56.4281 255 255 255
5.88112 18.7856 -23.7037 255 255 255
-4.55292 -64.798 -27.2933 255 255 255
34.0261 -22.0905 7.07343 255 255 255
-17.2207 15.1115 25.1506 255 255 255
67.8289 -16.7805 -30.5659 255 255 255
-59.2419 30.5788 -21.2197 255 255 255
-15.0285 -68.4242 -26.7631 255 255 255
-31.1907 -61.0241 -4.57659 255 255 255
31.7589 -56.2252 -46.578 255 255 255
-32.5719 51.2886 40.8864 255 255 255
71.233 27.9904 11.3505 255 255 255
-38.8168 -14.1621 -2.08007 255 255 255
1.57017 -43.6247 62.8261 255 255 255
-11.388 23.9522 80.8725 255 255 255
27.123 -65.1675 53.6188 255 255 255
-47.7328 -25.406 17.9908 255 255 255
96.4348 -17.32 39.3793 255 255 255
-50.4006 -67.1635 -14.2632 255 255 255
73.7415 18.33 44.7609 255 255 255
23.113 -13.8668 -63.9813 255 255 255
2.49683 1.43492 63.2238 255 255 255
-15.0841 -42.0739 38.4981 255 255 255
-30.1121 9.03864 18.9454 255 255 255
34.0096 -26.0657 42.4878 255 255 255
-1.98618 38.4686 -21.4075 255 255 255
73.6168 14.0124 -31.3597 255 255 255
-19.0872 2.13359 71.0242 255 255 255
-40.9369 38.6451 -42.3013 255 255 255
74.2392 15.6297 51.0611 255 255 255
25.173 0.114863 64.1323 255 255 255
-0.136487 58.3358 -51.1557 255 255 255
45.2139 48.145 64.6878 255 255 255
61.5075 38.4289 -6.20702 255 255 255
5.38176 -31.7935 -7.47505 255 255 255
1.85292 -31.7026 -47.1982 255 255 255
43.5662 -10.7643 -61.0838 255 255 255
16.1141 45.937 59.7993 255 255 255
-47.1185 -53.1608 14.2809 255 255 255
-22.6827 -13.8862 -14.0069 255 255 255
-21.3788 -20.6304 18.2159 255 255 255
28.6458 19.9778 69.0277 255 255 255
5.9759 53.9724 -25.2613 255 255 255
78.6665 -33.6576 13.1458 255 255 255
-26.0418 -52.0153 -30.124 255 255 255
42.8409 -74.4341 -17.5529 255 255 255
72.504 19.3016 54.6616 255 255 255
-28.7488 22.4026 31.1937 255 255 255
61.1629 56.3487 -53.8218 255 255 255
-10.2284 9.57986 -22.2108 255 255 255
6.23977 51.6446 -52.2372 255 255 255
-30.4386 55.4085 -35.2269 255 255 255
42.9937 31.3856 -68.212 255 255 255
-27.6109 -59.9148 -34.4948 255 255 255
5.94753 -58.3627 -52.6085 255 255 255
50.4989 -51.1345 -49.263 255 255 255
-10.6092 -21.1761 -4.24292 255 255 255
66.9744 -12.7063 40.3188 255 255 255
54.9424 -49.7582 -60.5447 255 255 255
-3.89245 -38.8508 -57.6594 255 255 255
79.594 51.5049 31.5443 255 255 255
8.11632 -42.168 -9.22621 255 255 255
70.6817 -19.3155 -15.6023 255 255 255
64.3095 -52.1947 0.959556 255 255 255
69.6501 24.1735 -6.897 255 255 255
27.3989 -48.2344 13.7296 255 255 255
16.7428 24.9177 40.3309 255 255 255
70.6632 -6.30599 35.1131 255 255 255
30.365 -49.7205 -32.3046 255 255 255
15.3983 -64.7756 -27.2503 255 255 255
65.1952 -4.8755 33.5211 255 255 255
78.389 -31.977 30.3935 255 255 255
-16.9063 49.9928 82.7928 255 255 255
81.692 44.6561 -18.2762 255 255 255
67.7285 28.6652 23.2868 255 255 255
33.8368 16.1143 -33.5759 255 255 255
37.6052 47.6083 5.03285 255 255 255
73.0309 2.60182 -1.45391 255 255 255
-13.2083 -7.83557 47.324 255 255 255
9.87101 1.19982 38.9684 255 255 255
53.5083 -29.6594 -32.4218 255 255 255
-11.4207 -6.00943 -13.478 255 255 255
25.6986 42.1455 -5.41319 255 255 255
77.7493 46.7392 -25.4188 255 255 255
51.0853 52.4972 31.2118 255 255 255
-27.776 51.7523 57.9803 255 255 255
32.5646 -21.9143 -50.87 255 255 255
48.4494 39.2755 -76.778 255 255 255
-2.18351 -71.637 35.4984 255 255 255
61.3738 -24.7244 -47.5573 255 255 255
-38.2138 34.6711 -9.98079 255 255 255
34.2848 47.1807 29.9231 255 255 255
75.7525 40.4697 37.6962 255 255 255
45.2147 -3.54854 54.8511 255 255 255
0.221373 -43.9007 -54.0979 255 255 255
-28.9593 -63.0367 37.122 255 255 255
50.1204 -7.85918 22.366 255 255 255
7.68314 -71.8042 15.4874 255 255 255
-26.449 -18.4751 -3.12415 255 255 255
69.1571 -50.8746 34.813 255 255 255
53.1707 -65.0596 42.533 255 255 255
-42.7307 -53.9736 2.81179 255 255 255
21.1732 54.4181 13.2166 255 255 255
75.3194 -12.6108 28.2085 255 255 255
64.2856 -19.6604 11.2856 255 255 255
24.7992 52.5205 34.3511 255 255 255
-33.9843 -26.3244 -4.24692 255 255 255
-22.6947 12.3189 64.9733 255 255 255
-37.1295 -0.101295 34.8606 255 255 255
1.7225 -0.00906005 28.3376 255 255 255
52.2908 15.346 44.0295 255 255 255
20.211 -51.2262 -1.87025 255 255 255
36.4677 24.6047 -36.1098 255 255 255
36.2124 -19.6523 -3.6249 255 255 255
23.4886 5.16133 42.4159 255 255 255
86.177 -45.5223 6.79273 255 255 255
92.8878 -56.6634 31.1885 255 255 255
-43.0925 27.7231 0.588627 255 255 255
-24.0436 55.4483 -34.1491 255 255 255
-21.7944 13.4292 87.8292 255 255 255
71.4372 18.9485 32.1444 255 255 255
-15.0596 1.06535 29.3765 255 255 255
29.8559 -64.4057 -19.461 255 255 255
48.4086 17.635 13.1332 255 255 255
-20.2224 -7.61483 15.699 255 255 255
70.9096 -64.3271 45.8057 255 255 255
-55.2537 35.0316 -31.0944 255 255 255
-24.9153 1.09583 -29.3555 255 255 255
-15.5466 -42.3135 -16.7073 255 255 255
43.9081 -42.0813 -41.4812 255 255 255
23.7313 -42.1906 19.6316 255 255 255
56.5133 48.0482 -76.3601 255 255 255
-31.5509 44.2993 17.7842 255 255 255
50.7332 38.7569 -42.8219 255 255 255
66.778 8.92736 -6.46121 255 255 255
25.2904 -13.6805 -34.694 255 255 255
0.205261 42.3973 -53.3846 255 255 255
8.87135 -73.2288 8.64883 255 255 255
87.8612 -62.2372 36.3358 255 255 255
6.8137 -60.7941 -9.96442 255 255 255
-28.0739 44.1229 60.6178 255 255 255
6.89026 15.0254 17.4016 255 255 255
-36.2898 14.2155 19.995 255 255 255
51.3979 -8.65374 44.0299 255 255 255
-24.3253 -51.2602 -24.4719 255 255 255
68.7116 -48.4387 -43.3434 255 255 255
-1.04408 42.4724 -41.7742 255 255 255
38.5389 -24.2234 63.9633 255 255 255
28.0493 7.71657 -62.777 255 255 255
60.4793 -14.6549 45.9712 255 255 255
-15.5883 -56.6692 -12.6344 255 255 255
-29.4181 -23.0717 43.2589 255 255 255
17.0831 47.7242 -15.695 255 255 255
-17.4467 12.2508 80.8601 255 255 255
67.9982 50.0965 -0.214673 255 255 255
74.9235 -53.3865 32.6278 255 255 255
58.6717 40.4289 -63.0328 255 255 255
25.7123 6.65537 -5.5619 255 255 255
8.31508 -50.0379 76.5975 255 255 255
-16.8506 -53.7881 -28.3045 255 255 255
27.2942 25.5733 -38.4678 255 255 255
7.38497 39.9866 63.9081 255 255 255
72.4343 -71.0448 -3.89535 255 255 255
62.6359 -43.2632 43.0083 255 255 255
70.7417 33.4977 -37.8559 255 255 255
1.6336 -15.5423 79.0373 255 255 255
20.4529 -44.9933 38.8974 255 255 255
-15.9836 -0.71697 -17.1948 255 255 255
32.0368 12.6803 -1.47954 255 255 255
53.4589 -28.2334 33.0477 255 255 255
-33.545 24.2999 -47.6752 255 255 255
-39.5613 7.89242 -20.5016 255 255 255
-36.6927 -37.8413 0.742564 255 255 255
56.5396 27.4175 51.4784 255 255 255
-20.763 56.4559 43.2543 255 255 255
32.262 -41.292 58.4473 255 255 255
19.5135 13.8045 29.2608 255 255 255
27.0124 20.1914 55.6357 255 255 255
-23.6034 29.3751 65.0186 255 255 255
-29.3634 -69.0177 -40.1197 255 255 255
-31.9448 -16.1908 -3.38262 255 255 255
-24.0534 -25.2195 18.0054 255 255 255
27.9552 -18.504 40.9601 255 255 255
13.9768 -40.7601 29.1241 255 255 255
4.62687 -3.24048 24.8023 255 255 255
40.4995 15.3396 64.358 255 255 255
29.9745 52.7746 -34.8249 255 255 255
-8.83015 -32.5818 36.3873 255 255 255
53.4752 -62.0781 -62.6672 255 255 255
-2.83099 21.7629 66.3668 255 255 255
-17.1408 14.8488 -43.5257 255 255 255
-2.81978 -51.7927 55.1414 255 255 255
67.1876 0.271042 49.3719 255 255 255
-0.644922 -1.14488 43.2368 255 255 255
62.018 -29.6624 31.3351 255 255 255
-35.3439 -1.71956 39.5117 255 255 255
65.0151 -59.8198 -44.2911 255 255 255
-6.71764 -25.6219 -31.4675 255 255 255
70.0609 -71.4643 -37.2424 255 255 255
70.9021 -50.9 34.3392 255 255 255
31.4076 41.8523 5.90541 255 255 255
-0.919899 54.9846 18.6844 255 255 255
-18.8 -49.4657 21.3444 255 255 255
-26.5171 -0.790384 -2.6192 255 255 255
-20.3607 -61.9798 84.1078 255 255 255
76.956 -38.6437 10.0133 255 255 255
74.1959 30.8762 6.08835 255 255 255
36.1201 7.61407 9.63955 255 255 255
17.7965 -43.4528 27.8149 255 255 255
8.37429 37.3138 -59.6251 255 255 255
-18.742 14.2474 -51.1243 255 255 255
38.7619 -75.2742 -30.2868 255 255 255
47.8272 -68.2717 -29.1293 255 255 255
27.1154 13.8191 16.4039 255 255 255
-41.524 -65.9728 -13.9305 255 255 255
75.9688 54.6132 2.44963 255 255 255
20.9546 33.7493 38.3854 255 255 255
0.0340833 -68.979 -26.1997 255 255 255
-35.3167 57.2692 -29.6234 255 255 255
-15.3076 -29.9143 34.9732 255 255 255
-6.9261 -20.7017 -25.0603 255 255 255
36.3012 24.2881 -58.0834 255 255 255
41.4088 53.2457 -22.566 255 255 255
23.1404 55.738 42.2886 255 255 255
-34.2156 58.5557 -7.54612 255 255 255
-53.6136 37.7325 -15.951 255 255 255
14.7653 10.2254 -30.9259 255 255 255
90.978 40.3959 7.85213 255 255 255
-26.7774 -35.2913 14.6385 255 255 255
59.5281 54.9495 -47.6241 255 255 255
77.3593 30.7019 -20.6696 255 255 255
57.5139 9.79842 55.5963 255 255 255
11.8467 -32.8631 -63.5015 255 255 255
45.3228 37.3635 -55.1534 255 255 255
45.6286 18.784 60.7455 255 255 255
13.355 42.6633 12.8325 255 255 255
-25.2179 18.3118 -12.8618 255 255 255
11.4114 -45.2726 62.2459 255 255 255
-24.1195 -20.471 7.95498 255 255 255
14.1555 -41.4445 66.0334 255 255 255
-30.9105 -9.79299 51.1982 255 255 255
-20.4396 8.83187 7.70055 255 255 255
-49.2981 -53.695 -11.2396 255 255 255
11.8516 15.8742 -38.0888 255 255 255
-36.1195 -24.428 -29.7661 255 255 255
85.0497 17.1637 -0.0763026 255 255 255
15.998 -5.10146 23.0495 255 255 255
67.4224 -63.9628 -2.71534 255 255 255
80.0943 7.98168 15.3564 255 255 255
62.8467 35.1269 -64.7872 255 255 255
-8.58545 55.2359 13.3452 255 255 255
61.2269 -62.4212 -37.8717 255 255 255
-46.1938 43.7886 16.8268 255 255 255
21.8884 45.1068 -47.1658 255 255 255
-20.661 57.5645 33.2622 255 255 255
-37.4399 -23.4563 30.8318 255 255 255
-11.6023 -45.29 -11.2739 255 255 255
66.6443 27.3879 -59.0902 255 255 255
49.4385 -74.3739 -70.3597 255 255 255
40.5006 -4.35774 -69.554 255 255 255
-38.6273 41.2084 23.6237 255 255 255
79.9373 22.3217 51.6553 255 255 255
11.7062 -20.5057 12.0119 255 255 255
72.5068 24.6733 45.2204 255 255 255
83.8194 13.8898 30.9361 255 255 255
-39.3114 -48.4628 23.9195 255 255 255
3.6676 5.29135 30.0527 255 255 255
-37.8169 -48.4339 17.4873 255 255 255
3.58707 2.96368 -54.3936 255 255 255
55.9176 -34.1569 0.409871 255 255 255
7.77589 -32.3818 62.1132 255 255 255
30.929 -47.4255 -34.7919 255 255 255
-7.41097 9.62209 -32.4723 255 255 255
-20.7117 34.2226 25.9179 255 255 255
-43.7357 -63.5464 -4.93479 255 255 255
16.451 -73.8816 53.7264 255 255 255
92.9518 -9.43924 39.3406 255 255 255
-38.2731 -35.5509 -33.8033 255 255 255
-15.3928 -31.0605 -32.8581 255 255 255
68.3829 9.20309 -13.3817 255 255 255
35.0716 19.9991 -41.7832 255 255 255
-2.00648 51.9983 16.6419 255 255 255
52.8817 -27.4789 16.5864 255 255 255
-40.5832 -56.1735 -26.0142 255 255 255
46.9114 50.5488 -29.8187 255 255 255
12.3323 41.6393 -12.1201 255 255 255
39.6465 27.6755 -30.6006 255 255 255
54.6641 24.5487 37.5331 255 255 255
-12.4272 27.8416 43.6357 255 255 255
-32.9385 44.4724 50.3024 255 255 255
89.9482 8.99279 7.90662 255 255 255
63.7468 -64.1442 48.9599 255 255 255
24.8819 -70.2117 31.721 255 255 255
49.8027 -0.00225068 -69.8155 255 255 255
-18.0485 49.1498 -48.6001 255 255 255
81.3046 -42.2114 29.3795 255 255 255
41.3439 -27.0089 -33.9677 255 255 255
49.8765 45.4758 20.5603 255 255 255
46.4645 -55.6735 14.5126 255 255 255
65.5929 -59.0998 -17.8358 255 255 255
-8.51318 -60.8967 82.5293 255 255 255
-1.44467 -10.8668 80.2442 255 255 255
-35.9048 41.6257 -3.72255 255 255 255
79.2935 49.0342 11.397 255 255 255
-27.2013 8.36602 33.8806 255 255 255
11.7239 18.2211 61.5477 255 255 255
54.5754 37.7806 -70.0912 255 255 255
-22.4154 -12.076 -38.5619 255 255 255
-33.0091 -48.0036 -7.54498 255 255 255
5.28627 39.0938 23.5544 255 255 255
65.3825 21.9258 37.5095 255 255 255
-19.177 57.6433 0.964608 255 255 255
6.42481 -42.9183 -39.6224 255 255 255
83.1276 -69.7081 -0.836734 255 255 255
-22.7134 -33.3327 -21.2969 255 255 255
-46.7385 -72.0603 9.94129 255 255 255
7.03725 42.2355 -3.80214 255 255 255
24.1633 20.0882 10.294 255 255 255
-29.0343 -25.9958 18.4262 255 255 255
-13.8921 51.0818 48.4692 255 255 255
-18.6591 43.9469 85.9035 255 255 255
59.99 -47.5745 -11.6292 255 255 255
23.6799 -0.490911 -14.9757 255 255 255
8.63615 -21.7313 -51.4251 255 255 255
23.9414 -31.4307 24.6565 255 255 255
-22.7935 24.7436 -0.314825 255 255 255
50.2366 -75.6339 -27.2725 255 255 255
102.048 37.0652 39.5443 255 255 255
-25.9663 6.28121 34.1336 255 255 255
52.8661 -53.9734 -65.1369 255 255 255
-31.7707 10.1979 27.2356 255 255 255
40.3858 11.976 23.8614 255 255 255
18.6074 56.7123 50.9766 255 255 255
19.5354 -10.691 -5.94009 255 255 255
60.8812 6.51139 -44.1661 255 255 255
49.1712 -34.0032 -37.2632 255 255 255
-25.6593 -21.8402 57.3133 255 255 255
58.3578 21.6702 24.1735 255 255 255
9.50147 6.90265 19.1369 255 255 255
90.7799 13.1557 34.1597 255 255 255
61.494 -3.92623 -21.0244 255 255 255
-4.02365 58.3419 24.9602 255 255 255
64.0162 -11.4949 13.3644 255 255 255
30.3604 -14.7128 -20.723 255 255 255
30.5771 -44.1873 40.4724 255 255 255
-0.677251 -32.4192 -54.2491 255 255 255
-3.51749 27.0752 76.3572 255 255 255
29.9582 6.87872 -42.7539 255 255 255
-18.1892 36.5703 45.7476 255 255 255
19.0506 2.59477 -34.7711 255 255 255
89.1409 -8.95941 46.6584 255 255 255
57.4673 8.53281 -50.6716 255 255 255
31.5596 -63.0227 17.2451 255 255 255
-35.5044 8.9686 40.0985 255 255 255
37.452 19.1773 -35.4871 255 255 255
42.9812 -73.9968 32.419 255 255 255
-18.607 43.9876 70.8153 255 255 255
-15.3878 -28.7659 -4.49615 255 255 255
42.1734 -55.4159 -12.623 255 255 255
-50.2582 11.1146 -5.7991 255 255 255
19.1579 -45.9446 -13.3728 255 255 255
17.3535 44.5821 -34.2261 255 255 255
37.404 -12.905 -29.9626 255 255 255
72.6011 -59.3449 -4.49242 255 255 255
53.2217 -5.62256 -65.9982 255 255 255
41.9363 -21.1672 51.2879 255 255 255
-4.42624 -30.0369 27.9887 255 255 255
6.03454 -5.32596 -26.0118 255 255 255
-3.08915 -2.61622 52.6096 255 255 255
5.90224 37.5844 52.1686 255 255 255
-57.0261 6.69735 -32.4471 255 255 255
25.6803 35.5722 -50.4418 255 255 255
-35.2475 40.0432 14.1433 255 255 255
-38.8663 45.5933 35.3053 255 255 255
-40.4454 59.5928 0.242482 255 255 255
41.2381 -17.821 57.5592 255 255 255
-6.29952 -63.8601 -16.3282 255 255 255
10.8887 -12.204 5.53005 255 255 255
52.6985 34.3944 -74.5549 255 255 255
90.64 17.9093 9.45828 255 255 255
38.0754 -55.9628 -0.782944 255 255 255
-15.1935 -54.0759 83.9818 255 255 255
-27.9564 -55.4754 66.107 255 255 255
41.3407 51.7606 -6.92367 255 255 255
23.7051 -13.0257 47.7139 255 255 255
-11.415 -12.2391 25.2909 255 255 255
36.9714 -54.501 -7.9966 255 255 255
-50.5442 6.41343 -3.70378 255 255 255
9.89565 32.9617 -28.0585 255 255 255
-44.4122 55.0199 -18.6841 255 255 255
-4.24696 -26.1805 0.9281 255 255 255
-3.83727 34.1772 34.0243 255 255 255
77.8214 -7.98695 23.8687 255 255 255
22.9719 45.5884 33.674 255 255 255
-3.97193 59.5564 -31.9864 255 255 255
31.5956 -36.5768 20.5543 255 255 255
20.3914 -8.5426 15.6817 255 255 255
0.570678 -59.4892 21.8566 255 255 255
-20.5528 22.553 71.1288 255 255 255
-30.4651 39.5468 60.0908 255 255 255
35.7694 -73.8519 66.3374 255 255 255
81.3036 -10.3283 12.7329 255 255 255
6.94702 -73.7912 -55.4299 255 255 255
-47.5339 -44.5888 -38.5821 255 255 255
50.2976 56.8125 -34.6247 255 255 255
2.86117 17.8263 45.8584 255 255 255
8.88158 28.5555 -25.5543 255 255 255
-2.79322 44.7094 71.6238 255 255 255
13.718 -43.8641 -26.4381 255 255 255
-50.444 -61.503 -7.0103 255 255 255
-44.8539 54.8811 -24.2226 255 255 255
46.8383 22.5339 29.5776 255 255 255
75.0544 -58.5282 44.3496 255 255 255
47.9534 49.0407 -43.4787 255 255 255
4.03104 6.53987 20.4859 255 255 255
-51.9716 -60.4368 -14.9145 255 255 255
-35.3806 6.93878 -24.1459 255 255 255
67.8845 -33.5902 -46.6124 255 255 255
76.8479 41.6866 -4.70841 255 255 255
47.4504 -29.1589 25.1086 255 255 255
27.0051 -69.0775 40.2064 255 255 255
-36.8514 -11.9625 0.404779 255 255 255
-7.09068 -21.5998 -34.9577 255 255 255
-20.2721 -40.6615 -36.1683 255 255 255
-43.5687 -62.1075 19.6175 255 255 255
14.6247 35.3528 2.85483 255 255 255
-58.0726 14.8623 -12.3939 255 255 255
-1.62509 -23.7535 79.2348 255 255 255
29.7202 -19.2225 6.06669 255 255 255
37.064 -23.0739 -69.3383 255 255 255
32.5183 10.0392 -46.0596 255 255 255
69.3837 43.4474 -34.6757 255 255 255
54.7469 -18.8721 15.2247 255 255 255
-57.451 -22.799 -16.9519 255 255 255
41.2817 45.4265 53.9117 255 255 255
82.045 46.2752 12.3752 255 255 255
54.2137 -64.9509 -7.68814 255 255 255
0.35588 55.544 -33.342 255 255 255
58.63 20.676 -33.4057 255 255 255
18.572 36.5897 -21.0802 255 255 255
19.1003 -32.1513 -4.67756 255 255 255
69.619 -45.9927 8.44483 255 255 255
-9.71665 39.269 65.8132 255 255 255
-15.3101 40.2983 -13.4952 255 255 255
-42.6808 -11.3338 14.8825 255 255 255
50.8274 -13.9242 -57.9217 255 255 255
83.6601 1.88508 23.4605 255 255 255
-8.08714 -57.6186 -53.4074 255 255 255
85.8622 23.1529 31.5522 255 255 255
41.2651 -16.9475 -44.6408 255 255 255
-33.8316 21.731 37.4 255 255 255
71.6815 51.8837 45.5954 255 255 255
25.9033 -71.7776 -67.3068 255 255 255
42.1643 -38.7229 -43.3775 255 255 255
-12.9974 -37.4964 -48.0794 255 255 255
