ply
format ascii 1.0
element vertex 504
property float x
property float y
property float z
property uchar red
property uchar green
property uchar blue
end_header
-0.50231 -4.68498 -200.939 0 255 0
-6.53848 -1.6921 -184.84 0 255 0
-0.196467 -8.80297 -191.93 0 255 0
-11.8393 1.99229 -180.869 0 255 0
35.4639 31.0863 15.0149 255 255 255
-11.0406 -20.2909 -61.3508 255 255 255
14.6986 -75.6205 46.1149 255 255 255
-41.7208 38.0259 14.4407 255 255 255
60.8443 -58.8096 -2.71336 255 255 255
-39.9434 -62.0855 29.8878 255 255 255
-23.972 60.4123 -28.6676 255 255 255
-28.5989 41.5118 -26.5015 255 255 255
46.5114 36.3068 68.6032 255 255 255
-28.1309 18.3983 -11.5442 255 255 255
24.1889 64.9792 -17.9712 255 255 255
-1.47674 48.2246 20.0587 255 255 255
-66.3912 25.0223 19.6841 255 255 255
3.00166 23.6367 -59.6012 255 255 255
60.2995 -32.4117 -0.0714053 255 255 255
-15.4256 24.7628 -14.5367 255 255 255
-38.9756 5.6894 73.7347 255 255 255
12.8242 1.21075 27.654 255 255 255
27.9152 30.527 -11.8963 255 255 255
20.6138 -34.6451 53.5041 255 255 255
58.1034 59.0836 4.25287 255 255 255
-27.2507 21.4569 16.0762 255 255 255
3.28938 -59.9812 23.4144 255 255 255
62.0324 -69.1471 42.7679 255 255 255
57.8281 32.4763 -0.00108077 255 255 255
7.5328 52.5252 44.2334 255 255 255
-69.6204 -0.552113 -51.3536 255 255 255
35.4859 -30.219 24.8854 255 255 255
5.23638 -7.71189 -36.2199 255 255 255
17.6263 30.6 54.2916 255 255 255
-71.4631 -46.6585 -39.2791 255 255 255
6.27519 1.12207 44.8541 255 255 255
-40.3218 58.4247 52.7733 255 255 255
53.3086 -54.7387 48.2972 255 255 255
-39.9873 -49.3187 -11.7347 255 255 255
-14.2496 -17.26 60.104 255 255 255
24.3427 20.8408 16.0394 255 255 255
-16.2561 -9.98362 16.489 255 255 255
-6.33177 -56.2705 -51.7535 255 255 255
-48.5018 -35.816 42.6674 255 255 255
-11.1602 33.0206 -4.35932 255 255 255
8.7178 -54.7041 -32.4926 255 255 255
-62.7803 -46.377 71.6331 255 255 255
18.9262 44.8822 -24.2991 255 255 255
-7.78131 10.4137 24.422 255 255 255
-10.818 6.61577 62.5592 255 255 255
1.32674 21.6871 -19.9929 255 255 255
-6.99019 -45.3653 -34.7191 255 255 255
16.2621 -34.6071 8.7695 255 255 255
-36.2959 11.837 5.36679 255 255 255
55.5167 -2.46299 -2.02621 255 255 255
-82.0963 34.6112 -47.5152 255 255 255
-9.71859 -72.1962 -54.6725 255 255 255
-40.7029 -56.131 -20.5895 255 255 255
43.534 -53.4687 -60.8229 255 255 255
-49.8558 48.3138 17.057 255 255 255
44.3869 27.9295 26.953 255 255 255
-52.8378 -16.5898 -34.7011 255 255 255
-29.2437 -50.1528 36.1873 255 255 255
-53.2095 26.8872 44.4104 255 255 255
-5.69308 -69.9284 63.6536 255 255 255
-62.7729 -26.6014 -17.315 255 255 255
50.8226 -22.1479 60.4513 255 255 255
-59.4827 -80.5954 -44.9278 255 255 255
30.3726 18.7207 67.5079 255 255 255
15.712 -31.2536 -43.1296 255 255 255
-22.5119 3.59898 37.719 255 255 255
-28.4459 -38.7442 20.054 255 255 255
-47.0377 9.8104 -4.77462 255 255 255
-0.698987 -30.11 52.3872 255 255 255
-24.0268 31.8944 -29.6837 255 255 255
68.4552 13.1777 -25.6538 255 255 255
-68.164 1.70637 44.3429 255 255 255
-42.9186 43.4964 -55.4489 255 255 255
39.4463 11.5265 58.6488 255 255 255
-19.077 -0.591326 41.3958 255 255 255
13.9421 73.1353 -76.5779 255 255 255
-10.1177 43.8795 76.9549 255 255 255
48.5711 52.2344 2.55966 255 255 255
-15.2455 -13.9467 -18.8233 255 255 255
3.30795 -48.0638 -52.9897 255 255 255
51.7789 -6.46627 -36.0449 255 255 255
-26.8611 55.1232 50.5271 255 255 255
-57.2888 -45.7149 -7.47263 255 255 255
-37.3845 -1.6222 -31.6801 255 255 255
-41.8538 -18.3697 9.923 255 255 255
-16.684 23.1254 55.0326 255 255 255
-15.3018 53.5309 -53.3306 255 255 255
58.2204 -38.9917 34.8452 255 255 255
-23.2755 -53.4487 -50.787 255 255 255
30.281 -62.9819 -12.7266 255 255 255
40.2472 30.857 59.5004 255 255 255
-65.7287 24.121 12.291 255 255 255
54.7707 56.0961 -54.4274 255 255 255
-15.6061 10.0643 -33.1337 255 255 255
5.74162 49.9329 -54.1997 255 255 255
-13.3016 57.5971 -48.2905 255 255 255
40.0778 13.9219 -61.4235 255 255 255
-9.42531 -65.5583 -61.2466 255 255 255
12.3481 -61.2196 -50.861 255 255 255
56.1886 -40.3041 -42.0193 255 255 255
-16.9639 -8.7213 -16.2552 255 255 255
34.9478 -0.368878 43.2835 255 255 255
50.9732 -39.4743 -67.537 255 255 255
2.01645 -27.7401 -56.2484 255 255 255
26.7403 57.1564 33.9823 255 255 255
-6.82583 -55.7591 -10.8861 255 255 255
44.9118 -20.9033 -6.9371 255 255 255
41.3924 -67.1527 18.465 255 255 255
53.3709 30.8151 -12.6946 255 255 255
10.0054 -44.2756 12.8511 255 255 255
2.65477 33.2758 20.0566 255 255 255
30.1867 -12.6215 47.4256 255 255 255
18.0133 -40.7401 -37.4913 255 255 255
15.5367 -75.3724 -33.2805 255 255 255
37.9262 -10.3129 34.8062 255 255 255
51.3157 -24.1009 42.3275 255 255 255
-58.9657 49.0077 74.3301 255 255 255
58.8762 55.8941 -4.19085 255 255 255
37.753 30.3927 42.0957 255 255 255
29.2066 18.1348 -30.3062 255 255 255
12.2794 40.8703 6.38159 255 255 255
47.5502 0.10087 6.07199 255 255 255
-39.1346 -11.7495 31.0213 255 255 255
-27.1673 12.0726 28.1518 255 255 255
45.4088 -34.197 -25.3674 255 255 255
-29.3714 -13.12 -41.7507 255 255 255
-3.43545 23.3744 -19.266 255 255 255
57.1447 36.5866 -6.57019 255 255 255
33.0191 50.9726 13.6466 255 255 255
-46.4158 53.2925 12.6863 255 255 255
29.0316 -1.18155 -40.741 255 255 255
55.5179 57.1228 -67.3193 255 255 255
-29.2757 -71.4057 29.834 255 255 255
63.1951 -16.573 -41.5292 255 255 255
-46.9375 31.354 -39.1733 255 255 255
-15.349 27.9693 40.8303 255 255 255
31.0566 53.6822 26.6024 255 255 255
14.473 -16.1639 29.4596 255 255 255
2.49911 -51.6329 -65.5227 255 255 255
-51.164 -63.8733 12.1571 255 255 255
10.5248 -5.21942 10.2456 255 255 255
-15.2233 -58.5755 4.33581 255 255 255
-12.0348 -26.223 -17.1208 255 255 255
36.2818 -34.4016 40.8516 255 255 255
32.007 -65.8771 50.5565 255 255 255
-43.8917 -48.5704 -15.0181 255 255 255
21.0928 59.7931 0.770078 255 255 255
43.313 -16.5366 54.2935 255 255 255
32.6901 -10.2209 7.50929 255 255 255
0.688953 60.7067 30.8972 255 255 255
-29.2779 -33.5894 -21.8811 255 255 255
-61.3961 -4.48317 39.8672 255 255 255
-54.4295 6.18232 6.34906 255 255 255
-32.729 -8.41819 13.6957 255 255 255
4.58972 16.5377 33.5936 255 255 255
0.811554 -32.7067 -0.863761 255 255 255
23.4602 25.5645 -28.8799 255 255 255
17.2902 -10.6437 8.23219 255 255 255
-7.15309 1.43539 42.1639 255 255 255
61.6705 -34.599 3.04761 255 255 255
71.9035 -46.777 46.2942 255 255 255
-62.9331 16.471 -18.9583 255 255 255
-21.8046 63.1507 -66.5888 255 255 255
-62.1232 10.6236 52.8741 255 255 255
35.8909 21.8546 49.108 255 255 255
-46.924 -14.726 9.83029 255 255 255
13.176 -54.6068 -7.12785 255 255 255
28.4665 10.9068 2.566 255 255 255
-52.2947 -6.63314 9.54933 255 255 255
37.9381 -56.2366 55.4089 255 255 255
-69.0042 20.5488 -68.4339 255 255 255
-28.2827 -9.81375 -57.799 255 255 255
-4.82031 -38.8001 -21.3628 255 255 255
42.2143 -35.4166 -27.5899 255 255 255
23.5207 -50.1964 29.1665 255 255 255
51.6254 42.9101 -57.9704 255 255 255
-57.6772 48.0863 -1.42901 255 255 255
21.9124 49.6793 -28.2373 255 255 255
50.8935 -0.668238 2.7837 255 255 255
23.931 2.39346 -37.7828 255 255 255
8.76715 37.9782 -56.14 255 255 255
4.33493 -59.7839 -9.72835 255 255 255
58.5806 -34.2053 44.67 255 255 255
-10.2663 -49.3765 -16.9094 255 255 255
-70.2343 41.71 31.9171 255 255 255
-11.9712 25.7701 22.4884 255 255 255
-49.4562 11.9959 -0.759855 255 255 255
2.82616 -16.4872 40.3821 255 255 255
-38.4328 -52.338 -29.1488 255 255 255
72.5649 -47.8033 -37.2794 255 255 255
-14.4768 49.796 -44.6701 255 255 255
6.10464 -26.0125 64.499 255 255 255
16.6538 23.9209 -56.1131 255 255 255
30.1539 -24.7669 43.2538 255 255 255
-18.1945 -54.003 -27.5467 255 255 255
-50.746 -11.5039 31.7653 255 255 255
-8.71355 50.0114 -2.5434 255 255 255
-32.1891 21.4068 58.0881 255 255 255
57.0093 28.7779 18.459 255 255 255
44.3076 -41.99 39.6658 255 255 255
51.7414 49.1832 -44.7062 255 255 255
-5.38419 1.02928 -5.62095 255 255 255
-35.376 -53.2349 63.3979 255 255 255
-20.4232 -53.1771 -36.3664 255 255 255
39.6367 17.7723 -32.9774 255 255 255
-23.5496 34.3437 53.5053 255 255 255
25.6779 -75.9404 23.7787 255 255 255
35.2996 -38.8032 57.3165 255 255 255
62.4793 31.346 -28.7718 255 255 255
-35.4388 -24.5271 56.7999 255 255 255
-6.5373 -40.086 30.5775 255 255 255
-41.5209 -15.9674 -25.73 255 255 255
14.8676 6.65288 -17.01 255 255 255
27.1685 3.74082 24.2131 255 255 255
-30.429 18.0744 -51.6474 255 255 255
-26.5045 4.3845 -44.3404 255 255 255
-57.7639 -34.2682 -42.8333 255 255 255
35.3904 17.7816 51.2426 255 255 255
-39.3969 40.2208 21.431 255 255 255
-3.12082 -37.0403 51.6008 255 255 255
-13.4136 20.9975 18.066 255 255 255
-5.60556 18.8599 31.2489 255 255 255
-62.3146 9.508 41.6797 255 255 255
-26.9845 -77.7334 -50.851 255 255 255
-43.3519 -19.6854 -44.0091 255 255 255
-39.178 -13.1293 3.99792 255 255 255
-0.719229 -14.2842 34.9595 255 255 255
-14.0629 -48.5096 18.0139 255 255 255
-27.4585 -1.46921 5.25888 255 255 255
15.7468 4.12117 59.5129 255 255 255
13.349 57.4903 -11.3654 255 255 255
-27.6449 -24.2421 15.2684 255 255 255
44.9564 -73.5517 -75.1751 255 255 255
-46.8774 24.5302 40.2515 255 255 255
-17.2297 7.60314 -59.4423 255 255 255
-14.4079 -60.2592 30.3339 255 255 255
32.5328 -4.69384 79.1397 255 255 255
-25.1704 -1.2022 25.5127 255 255 255
43.3078 -8.35172 37.6883 255 255 255
-55.5779 -3.70576 30.2105 255 255 255
51.307 -43.2405 -19.9184 255 255 255
-5.09931 -13.8117 -27.8684 255 255 255
68.7831 -62.9992 -31.6334 255 255 255
32.9679 -51.4208 46.3132 255 255 255
7.61447 51.7704 -14.9724 255 255 255
-26.6301 64.8357 0.579492 255 255 255
-44.7293 -50.4972 -1.84111 255 255 255
-45.0947 16.4059 -31.077 255 255 255
-43.6255 -59.1915 49.7692 255 255 255
54.9842 -36.2069 19.9133 255 255 255
53.3225 32.7644 19.2675 255 255 255
19.694 6.9503 -9.78275 255 255 255
-6.30085 -27.4002 12.2071 255 255 255
-8.5527 51.7099 -71.1666 255 255 255
-30.5917 38.4342 -61.311 255 255 255
39.901 -56.7252 -16.1266 255 255 255
33.7673 -67.8292 -11.793 255 255 255
-18.2472 25.652 1.87734 255 255 255
-45.9017 -70.9115 -28.6622 255 255 255
26.7681 65.5664 19.8591 255 255 255
-15.2879 41.3712 23.1511 255 255 255
-2.48947 -75.0042 -30.9336 255 255 255
-41.4115 55.027 -56.1854 255 255 255
-39.4649 -42.2767 28.6917 255 255 255
-24.5673 -7.75568 -41.1104 255 255 255
29.6777 27.247 -41.6595 255 255 255
37.3155 63.4269 -17.8111 255 255 255
-8.5693 55.1611 44.4885 255 255 255
-50.7055 72.5192 -16.9666 255 255 255
-53.0658 27.1394 -46.4623 255 255 255
0.957203 10.4014 -43.994 255 255 255
73.4234 52.1903 36.1839 255 255 255
-35.7948 -48.5874 -14.9533 255 255 255
54.1216 63.5429 -38.2321 255 255 255
75.6002 31.8461 -5.2967 255 255 255
32.2837 26.2193 60.438 255 255 255
3.49646 -23.168 -69.4986 255 255 255
47.593 25.4717 -47.8637 255 255 255
9.46989 41.622 69.237 255 255 255
-16.5489 43.9056 16.3131 255 255 255
-41.7448 15.9029 -14.1113 255 255 255
-11.3948 -49.0517 34.8565 255 255 255
-39.3355 -8.31924 -5.61154 255 255 255
-13.1032 -34.7731 56.6918 255 255 255
-59.441 -25.4812 10.3165 255 255 255
-41.2458 3.44642 -12.442 255 255 255
-47.3639 -41.2051 -32.5344 255 255 255
9.74616 18.9935 -46.8071 255 255 255
-39.4116 -32.6974 -45.085 255 255 255
65.4369 27.1608 13.2304 255 255 255
-11.6427 -16.0333 22.5613 255 255 255
55.9269 -63.4443 -2.9189 255 255 255
51.1113 12.4029 36.2909 255 255 255
76.0533 44.6992 -47.0113 255 255 255
-38.9833 53.9664 8.28496 255 255 255
52.0383 -49.4934 -39.9808 255 255 255
-59.9835 46.1292 -14.156 255 255 255
4.43672 53.0814 -47.7881 255 255 255
-45.3389 26.337 15.3945 255 255 255
-58.7806 -18.5569 8.70801 255 255 255
-8.68125 -52.8555 -31.1974 255 255 255
63.4085 21.6565 -40.5484 255 255 255
61.8701 -74.0391 -66.2082 255 255 255
48.2399 4.27319 -69.4841 255 255 255
-50.2056 55.4524 7.92633 255 255 255
37.546 29.4653 61.9183 255 255 255
-4.17665 -19.7463 7.28129 255 255 255
40.5497 13.6877 54.8786 255 255 255
57.1727 38.0632 25.5863 255 255 255
-50.5135 -32.1299 -9.21328 255 255 255
-1.71549 2.85682 16.0165 255 255 255
-54.2323 -33.6329 -0.883845 255 255 255
21.0521 15.4806 -48.1579 255 255 255
17.2133 -22.8916 3.31297 255 255 255
-31.2515 -25.9235 56.0221 255 255 255
14.7276 -61.2242 -55.1459 255 255 255
-11.463 19.5509 -58.125 255 255 255
-45.9616 42.1006 -8.65895 255 255 255
-68.7244 -49.2111 -27.6786 255 255 255
-24.4972 -55.9585 47.8062 255 255 255
63.7617 11.6503 61.2396 255 255 255
-33.8153 -49.8218 -34.7273 255 255 255
-18.3207 -22.2968 -35.8551 255 255 255
41.8876 15.1125 9.5522 255 255 255
33.8937 -0.107006 -36.2356 255 255 255
-40.0615 60.707 -7.72907 255 255 255
25.1891 -16.4713 20.1182 255 255 255
-55.0478 -58.0347 -49.3201 255 255 255
40.9763 69.7038 -28.8279 255 255 255
6.76867 44.3959 -18.7095 255 255 255
28.7121 18.2966 -22.32 255 255 255
25.5835 6.06851 34.9221 255 255 255
-35.771 29.9826 20.4456 255 255 255
-74.4693 35.5245 24.2389 255 255 255
54.8478 7.00685 -1.48419 255 255 255
15.8411 -63.519 77.9389 255 255 255
-11.7282 -69.6907 37.5742 255 255 255
50.2896 -1.72546 -57.7988 255 255 255
-20.2301 30.1156 -49.0009 255 255 255
57.7446 -33.7386 44.0109 255 255 255
37.3206 -31.7666 -30.2098 255 255 255
9.34025 40.2444 15.623 255 255 255
37.6862 -44.2739 19.4851 255 255 255
64.1388 -45.7771 4.02351 255 255 255
-44.1007 -63.5843 49.1119 255 255 255
-46.819 -13.3149 66.1958 255 255 255
-32.6026 33.7866 -32.8196 255 255 255
57.711 57.9534 29.4207 255 255 255
-52.9669 -12.636 -10.0172 255 255 255
-19.1195 17.3284 45.6777 255 255 255
52.8474 49.7682 -44.7543 255 255 255
-37.945 -20.206 -39.6602 255 255 255
-32.7917 -39.8473 -37.257 255 255 255
-28.0789 50.0485 6.46111 255 255 255
9.04016 38.3116 43.1623 255 255 255
-35.7592 52.3005 -5.10177 255 255 255
-9.84813 -44.2976 -39.5385 255 255 255
44.8737 -53.4303 15.6396 255 255 255
-28.4403 -33.8067 -60.7156 255 255 255
-62.9311 -73.8285 -16.7129 255 255 255
-10.7163 65.9241 -14.3429 255 255 255
3.09418 18.5971 1.69386 255 255 255
-46.8698 -26.3103 -8.66269 255 255 255
-53.7788 36.1991 19.076 255 255 255
-71.5829 39.8669 59.5787 255 255 255
17.092 -38.1204 2.72202 255 255 255
15.5169 -5.38124 -23.3887 255 255 255
13.4884 -7.3323 -54.3716 255 255 255
-0.135652 -10.2357 22.5561 255 255 255
-43.9843 29.9945 -18.5913 255 255 255
39.1709 -69.0086 -15.2518 255 255 255
65.0558 48.7313 58.2186 255 255 255
-68.3241 7.27561 13.3264 255 255 255
55.765 -56.5698 -61.4391 255 255 255
-86.861 -7.4026 4.38175 255 255 255
22.156 26.1701 28.2205 255 255 255
-29.8473 54.6328 50.0893 255 255 255
0.231018 -15.0411 -13.456 255 255 255
70.8764 9.35438 -37.5616 255 255 255
42.7658 -26.3157 -28.46 255 255 255
-62.9141 -6.56501 52.5337 255 255 255
31.7142 29.5988 29.7031 255 255 255
0.784522 23.3483 12.3266 255 255 255
62.934 30.0823 44.6469 255 255 255
59.2767 5.6073 -3.67668 255 255 255
-44.4544 50.5649 13.6899 255 255 255
23.2517 4.8444 2.45324 255 255 255
18.8804 -24.3705 -36.0433 255 255 255
4.84762 -37.8864 39.2686 255 255 255
-3.69612 -35.7684 -54.0964 255 255 255
-49.3529 31.6426 45.8946 255 255 255
16.5782 5.43708 -42.5711 255 255 255
-27.8773 32.634 28.4093 255 255 255
9.46011 1.6449 -40.208 255 255 255
70.1477 -1.3974 63.2117 255 255 255
62.0671 11.3349 -54.8701 255 255 255
2.21361 -58.7364 30.7358 255 255 255
-61.7796 0.113793 16.1387 255 255 255
26.4003 34.9956 -7.69658 255 255 255
15.6503 -50.4076 57.9624 255 255 255
-57.5981 36.5022 48.3247 255 255 255
-34.2942 -38.6031 -31.7637 255 255 255
23.1839 -54.4713 -13.0522 255 255 255
-55.577 -12.0457 -39.5934 255 255 255
8.54988 -37.8313 -6.82152 255 255 255
0.870513 25.4066 -33.2827 255 255 255
42.0104 -4.83824 -36.5127 255 255 255
68.6529 -41.6628 -5.26159 255 255 255
69.5991 -7.57714 -57.274 255 255 255
-3.26349 -20.9028 41.68 255 255 255
-39.1538 -20.8578 2.74687 255 255 255
6.26589 0.912269 -50.1275 255 255 255
-36.3392 -3.11684 28.0744 255 255 255
-55.3355 28.9286 39.3955 255 255 255
-36.9722 3.94348 -64.9421 255 255 255
18.1132 40.1138 -56.0057 255 255 255
-39.8631 32.691 0.0796079 255 255 255
-63.6097 42.0774 10.4336 255 255 255
-48.2055 64.0006 -32.4396 255 255 255
18.3262 8.87445 39.6092 255 255 255
6.80908 -40.9837 -33.1983 255 255 255
-7.94897 -18.8869 2.84547 255 255 255
67.5484 43.9174 -47.8378 255 255 255
64.5076 25.8664 22.9016 255 255 255
24.0887 -61.8907 7.12166 255 255 255
-58.1095 -58.3349 69.7092 255 255 255
-75.9394 -51.8063 63.3333 255 255 255
17.4345 65.0345 9.43933 255 255 255
1.42872 -7.13944 37.6975 255 255 255
-27.0046 -4.21385 7.56803 255 255 255
30.3655 -51.8673 -27.3147 255 255 255
-51.8939 23.024 -40.0536 255 255 255
-9.89934 29.9354 -56.8024 255 255 255
-38.7803 44.6725 -36.8249 255 255 255
-10.4158 -26.6688 -23.878 255 255 255
-43.8403 42.6172 4.67405 255 255 255
57.55 -10.6409 55.2923 255 255 255
-10.2084 30.7771 24.4988 255 255 255
-6.95044 60.373 -63.754 255 255 255
5.333 -18.6594 25.2215 255 255 255
4.76112 -8.31549 -2.60043 255 255 255
-13.9631 -37.227 10.7333 255 255 255
-55.622 13.8073 39.4635 255 255 255
-53.6406 50.3184 40.1973 255 255 255
7.36039 -67.8689 75.5847 255 255 255
60.7791 -15.4454 22.852 255 255 255
10.5064 -71.3532 -70.8279 255 255 255
-53.2334 -58.3792 -72.7587 255 255 255
39.0001 54.4959 -9.09689 255 255 255
-23.2974 13.8523 54.7506 255 255 255
-2.26992 30.6313 -35.1304 255 255 255
-29.7636 18.1554 73.2386 255 255 255
1.11722 -55.5039 -8.86543 255 255 255
-48.5044 -62.3683 -42.7906 255 255 255
-62.877 59.2985 -62.3844 255 255 255
0.244648 25.4827 30.2757 255 255 255
62.7178 -40.2416 51.0441 255 255 255
32.3209 44.8457 -28.1056 255 255 255
-14.5508 4.53848 8.64183 255 255 255
-62.2088 -54.0902 -72.734 255 255 255
-42.9919 -4.79575 -61.0139 255 255 255
74.7987 -28.1872 -32.8144 255 255 255
67.9484 43.6821 16.1033 255 255 255
23.1796 -31.7488 11.9712 255 255 255
-14.155 -68.0918 39.3442 255 255 255
-41.5465 -11.851 -25.9862 255 255 255
-21.6571 -17.0915 -41.6377 255 255 255
-35.617 -55.9675 -44.0793 255 255 255
-44.7796 -71.9633 -0.254726 255 255 255
-9.75789 51.4622 -9.68792 255 255 255
-56.4109 22.0432 -46.8334 255 255 255
-23.5228 -21.561 47.9823 255 255 255
-7.80739 -11.989 3.28991 255 255 255
39.8367 -12.3298 -64.5269 255 255 255
24.7371 1.52034 -48.1434 255 255 255
48.3324 40.1071 -16.9529 255 255 255
33.2507 -7.49245 26.4056 255 255 255
-70.5157 -33.9919 -29.7649 255 255 255
-11.6053 54.732 60.6725 255 255 255
59.6253 55.42 21.1887 255 255 255
39.8327 -45.7014 -10.2035 255 255 255
5.43521 65.8735 -42.5175 255 255 255
38.9312 34.3058 -13.2876 255 255 255
17.6549 46.4329 -30.3531 255 255 255
-5.42485 -27.2885 -10.2597 255 255 255
40.4106 -32.3876 23.8113 255 255 255
-42.2884 48.3476 58.415 255 255 255
-21.8396 28.4624 -24.2524 255 255 255
-55.9112 -3.96029 -6.01862 255 255 255
46.2739 -6.40214 -46.6807 255 255 255
55.5704 24.5737 47.2713 255 255 255
-13.4359 -40.755 -70.4211 255 255 255
41.9293 30.1966 52.6467 255 255 255
47.9375 -15.1081 -30.8538 255 255 255
-78.1872 14.2053 31.7563 255 255 255
23.9656 80.8991 39.4528 255 255 255
34.6663 -49.1728 -64.4714 255 255 255
44.0588 -35.3114 -19.4774 255 255 255
-17.2058 -38.2691 -51.1623 255 255 255
