ply
format ascii 1.0
element vertex 504
property float x
property float y
property float z
property uchar red
property uchar green
property uchar blue
end_header
14.3426 -118.816 -160.924 0 255 0
11.386 -117.541 -157.891 0 255 0
7.78912 -116.191 -156.268 0 255 0
4.25322 -114.073 -155.169 0 255 0
21.0727 30.4545 -26.6989 255 255 255
12.1414 -60.5093 -53.8755 255 255 255
31.8883 -16.4128 59.3876 255 255 255
-46.318 41.6669 -16.3473 255 255 255
80.7764 -35.728 10.0489 255 255 255
-26.7968 -25.2808 39.4597 255 255 255
-27.8012 30.4172 -61.5991 255 255 255
-0.475939 14.1405 -53.6557 255 255 255
40.9143 77.3314 10.9459 255 255 255
-23.2279 10.7597 -25.5177 255 255 255
29.5512 16.0246 -90.3097 255 255 255
4.35001 53.597 -27.6808 255 255 255
-34.887 21.9567 0.144361 255 255 255
20.726 -11.1598 -60.95 255 255 255
63.8652 -5.36266 3.95775 255 255 255
-7.08356 14.1344 -40.2727 255 255 255
-36.9774 63.5126 36.1209 255 255 255
25.0837 39.9412 -5.8281 255 255 255
30.9688 20.798 -49.2675 255 255 255
54.7831 3.08378 41.7817 255 255 255
43.1089 64.2006 -34.7949 255 255 255
-17.5442 18.9477 -14.2323 255 255 255
12.3936 -16.6173 49.6872 255 255 255
80.154 -6.15138 54.3079 255 255 255
53.9999 24.5987 -50.446 255 255 255
17.3186 95.3448 1.69981 255 255 255
-31.5016 -45.5693 -59.0508 255 255 255
49.9086 -9.82329 23.7692 255 255 255
26.3444 -43.9671 -65.4015 255 255 255
26.472 67.8895 23.6117 255 255 255
-35.6015 -82.1117 -19.0709 255 255 255
5.16472 20.4424 33.2344 255 255 255
-44.7894 68.8358 12.111 255 255 255
66.7824 -7.36194 57.6877 255 255 255
-18.9306 -44.4719 -2.21966 255 255 255
-7.9809 12.6748 58.7143 255 255 255
50.4609 34.8261 -15.926 255 255 255
-6.4871 -5.51926 10.4988 255 255 255
30.5913 -77.1917 -28.3793 255 255 255
-29.1758 6.42576 48.5714 255 255 255
3.98389 17.9911 -46.0312 255 255 255
36.0551 -53.4445 -6.08123 255 255 255
-40.9517 1.17875 77.2409 255 255 255
27.382 21.4965 -78.878 255 255 255
6.11139 21.5044 1.1666 255 255 255
2.0207 53.5205 27.3227 255 255 255
7.03037 -2.34179 -52.1229 255 255 255
12.0944 -69.4252 -15.1302 255 255 255
27.8522 -6.11242 -0.987598 255 255 255
-29.197 17.0359 -14.233 255 255 255
68.1348 -11.7682 -26.4969 255 255 255
-37.2662 -37.2378 -88.5978 255 255 255
4.3062 -81.5371 -38.7142 255 255 255
-17.3645 -63.7049 -5.42594 255 255 255
46.7912 -61.7742 -26.7257 255 255 255
-54.5074 48.4507 -25.7057 255 255 255
52.0171 48.145 -17.379 255 255 255
-31.3411 -32.7646 -30.6719 255 255 255
-15.4932 -1.0226 50.3416 255 255 255
-46.5319 62.8959 30.8604 255 255 255
13.6846 -12.0688 63.2735 255 255 255
-43.6079 -32.8036 -11.1664 255 255 255
73.1172 39.5253 36.6454 255 255 255
-20.6845 -87.0522 -44.711 255 255 255
45.3367 62.7704 16.5234 255 255 255
38.1901 -44.9095 -64.6188 255 255 255
-23.5199 39.9583 33.11 255 255 255
-21.9694 -19.179 26.7266 255 255 255
-36.7047 2.68265 -20.0622 255 255 255
17.2513 13.6532 33.1906 255 255 255
-3.43049 9.82081 -63.5152 255 255 255
69.1487 12.7243 -42.9837 255 255 255
-45.6718 35.3641 32.3528 255 255 255
-27.4676 -19.9691 -89.6793 255 255 255
44.2131 65.1366 23.8144 255 255 255
-2.69891 48.2518 39.846 255 255 255
4.82586 3.54458 -98.7076 255 255 255
7.78825 92.5075 13.4884 255 255 255
47.3019 42.3927 -39.0082 255 255 255
9.26077 -30.2814 -11.4656 255 255 255
18.1115 -57.0838 -50.3634 255 255 255
55.2995 -32.278 -57.5208 255 255 255
-17.2769 77.8957 5.84987 255 255 255
-38.213 -52.9482 3.28359 255 255 255
-15.4453 -29.938 -31.2165 255 255 255
-24.4308 -15.5217 -0.525677 255 255 255
-4.48442 67.7509 31.9708 255 255 255
2.35665 18.8579 -75.4571 255 255 255
68.0172 6.09184 22.0451 255 255 255
-5.57477 -71.6021 -35.7699 255 255 255
51.6285 -54.1174 12.0391 255 255 255
41.0991 70.9761 25.639 255 255 255
-42.4466 21.2822 -16.6276 255 255 255
57.9125 24.1839 -87.9308 255 255 255
-5.7409 -12.855 -47.8193 255 255 255
11.3775 1.65348 -94.134 255 255 255
-25.3661 3.27304 -89.3105 255 255 255
49.1163 -10.5659 -89.2886 255 255 255
-3.50677 -82.1184 -45.4288 255 255 255
27.235 -74.8722 -36.1779 255 255 255
64.676 -51.5599 -23.2464 255 255 255
-7.4174 -24.7426 -15.7252 255 255 255
45.2926 32.9809 28.6587 255 255 255
71.2556 -55.786 -32.8639 255 255 255
17.8692 -67.3843 -52.2633 255 255 255
49.5776 81.8575 -13.0987 255 255 255
13.6044 -40.7338 -12.1545 255 255 255
66.146 -5.0216 -14.0648 255 255 255
61.3378 -20.5101 18.4826 255 255 255
56.6006 32.9173 -30.8389 255 255 255
24.0499 -23.3727 18.3657 255 255 255
-5.94231 46.7461 -0.0430337 255 255 255
48.8708 34.6167 19.7341 255 255 255
40.611 -49.9225 -19.1072 255 255 255
27.9429 -64.7177 -15.6728 255 255 255
44.6448 34.2242 18.2081 255 255 255
62.0796 17.3096 35.0442 255 255 255
-57.775 85.3339 17.7918 255 255 255
67.6554 45.4713 -49.4195 255 255 255
45.1655 55.4874 -8.15771 255 255 255
34.3634 -2.197 -54.572 255 255 255
20.962 46.9645 -40.3138 255 255 255
60.8712 20.416 -14.3227 255 255 255
-29.9468 15.0759 19.0632 255 255 255
-7.9651 27.2813 13.8828 255 255 255
58.1071 -26.947 -23.6446 255 255 255
-6.99815 -22.0232 -35.5834 255 255 255
14.5541 28.062 -50.8091 255 255 255
65.6057 40.3219 -57.5177 255 255 255
23.759 73.1225 -18.6495 255 255 255
-56.382 60.4018 -11.7606 255 255 255
43.1686 -40.9504 -49.598 255 255 255
56.2513 -5.0372 -97.252 255 255 255
-4.98139 -38.5141 42.7288 255 255 255
69.1854 -28.4639 -35.5283 255 255 255
-35.4274 -3.80018 -63.5139 255 255 255
9.84265 62.7169 -19.324 255 255 255
45.9352 76.2163 -1.97304 255 255 255
19.3769 38.8235 28.4872 255 255 255
20.2912 -69.7696 -51.1365 255 255 255
-28.9349 -42.4886 28.4971 255 255 255
32.8019 8.07484 -6.68607 255 255 255
10.1195 -46.7157 27.5395 255 255 255
-20.8132 -30.7209 -24.3912 255 255 255
55.1068 1.88063 46.949 255 255 255
40.7881 -9.15629 59.5829 255 255 255
-30.2209 -58.5874 -5.58261 255 255 255
2.5445 53.6128 -39.2325 255 255 255
56.7836 29.1722 20.81 255 255 255
52.1399 7.00636 4.95793 255 255 255
-1.19247 68.2421 -19.1092 255 255 255
-24.5972 -41.2769 -25.7946 255 255 255
-47.6201 36.0715 17.9708 255 255 255
-47.0392 2.8421 -3.3589 255 255 255
-11.1704 15.1812 2.01375 255 255 255
26.4709 51.7513 12.9291 255 255 255
23.0479 -37.6307 4.04686 255 255 255
35.9483 2.75244 -61.3088 255 255 255
32.2633 -11.589 -13.0745 255 255 255
2.55416 37.6164 17.4044 255 255 255
78.3055 -4.48855 24.3103 255 255 255
79.4665 4.9571 54.4786 255 255 255
-41.8486 -4.39158 -52.8897 255 255 255
-19.5071 2.74715 -89.2001 255 255 255
-56.6299 54.3682 40.2113 255 255 255
47.1195 54.4392 5.14588 255 255 255
-25.9711 7.9282 -4.45446 255 255 255
39.125 -52.5589 1.2484 255 255 255
32.3162 31.2962 -16.275 255 255 255
-25.0079 -6.19271 -8.81969 255 255 255
55.7662 -0.333455 66.1019 255 255 255
-28.8688 -45.1076 -101.208 255 255 255
-13.44 -32.6658 -56.9531 255 255 255
-3.71636 -51.2059 -19.7666 255 255 255
54.6253 -43.6344 -24.9187 255 255 255
18.1625 -15.9714 20.5152 255 255 255
61.2822 2.97518 -101.019 255 255 255
-43.5198 28.1699 -40.9699 255 255 255
47.6808 12.6977 -72.3259 255 255 255
56.1797 20.7029 -22.3505 255 255 255
31.5859 -27.9594 -41.9182 255 255 255
8.12253 -7.79361 -91.0782 255 255 255
13.446 -51.5807 21.7732 255 255 255
73.9246 1.54654 60.3146 255 255 255
15.6765 -53.4579 -0.453957 255 255 255
-56.8162 57.3231 -4.03378 255 255 255
-5.37097 22.9009 -13.6682 255 255 255
-42.9563 4.28258 -24.1237 255 255 255
29.0397 29.6429 22.4531 255 255 255
-6.9361 -65.0055 -24.2785 255 255 255
79.0591 -39.9187 -15.718 255 255 255
3.32538 0.724137 -81.3917 255 255 255
13.8431 29.8865 51.5642 255 255 255
38.4911 -28.8764 -75.3018 255 255 255
37.964 32.8127 33.4315 255 255 255
-2.5512 -60.7198 -12.9124 255 255 255
-40.3191 -4.75648 21.2052 255 255 255
9.64307 28.4382 -59.6586 255 255 255
-50.3099 52.0986 37.4998 255 255 255
49.2755 56.3575 -40.4186 255 255 255
61.588 1.14747 48.5056 255 255 255
60.6809 6.5539 -86.2083 255 255 255
20.3687 6.44991 -26.943 255 255 255
-13.6383 6.90016 71.2691 255 255 255
0.833596 -67.1531 -26.4594 255 255 255
29.0257 0.730622 -63.8801 255 255 255
-25.7553 72.0864 10.802 255 255 255
73.0566 -34.386 27.0458 255 255 255
45.7425 11.1781 49.7463 255 255 255
65.3896 21.6215 -60.2026 255 255 255
-26.696 34.0939 53.9641 255 255 255
9.3513 -9.43706 34.9048 255 255 255
-10.2979 -22.1194 -42.4911 255 255 255
23.0166 10.1482 -31.3004 255 255 255
37.6128 10.8496 26.9961 255 255 255
-17.937 -29.5895 -84.1511 255 255 255
-28.5707 -29.2433 -58.1406 255 255 255
-26.1477 -48.4744 -18.6002 255 255 255
26.0807 68.951 14.4831 255 255 255
-45.5433 57.4044 -25.1709 255 255 255
12.7652 10.0145 53.5206 255 255 255
2.21421 33.2376 -1.22929 255 255 255
-1.18307 56.4187 17.668 255 255 255
-51.3705 48.906 7.8938 255 255 255
-1.50383 -91.6828 -50.2992 255 255 255
-24.6395 -33.5579 -30.6888 255 255 255
-25.9343 -19.9582 1.407 255 255 255
11.055 14.2876 23.4554 255 255 255
6.2556 -15.0577 21.5422 255 255 255
-6.85656 12.2186 2.2894 255 255 255
9.01696 60.4456 27.9233 255 255 255
26.059 23.5152 -76.1447 255 255 255
-17.7236 -10.0926 22.8517 255 255 255
72.8662 -66.1879 -27.6075 255 255 255
-32.9383 55.3877 21.7893 255 255 255
-5.15618 -26.4372 -71.3939 255 255 255
-14.815 -15.3826 43.092 255 255 255
40.788 49.7554 30.1564 255 255 255
-18.6113 23.7555 16.1921 255 255 255
46.603 13.8807 31.2364 255 255 255
-47.446 6.3351 3.4653 255 255 255
77.5578 -50.3529 -11.4228 255 255 255
5.76937 -44.5453 -38.3627 255 255 255
83.1065 -52.4091 4.2985 255 255 255
56.9724 2.46815 47.4877 255 255 255
16.1332 41.0854 -37.359 255 255 255
-19.3335 50.0453 -38.9981 255 255 255
-17.5536 -37.3264 12.1886 255 255 255
-24.2482 -16.5452 -31.9456 255 255 255
-38.9327 -10.6094 72.8626 255 255 255
68.0283 -0.442199 21.4839 255 255 255
55.9407 48.3232 -22.7092 255 255 255
24.0663 16.2344 -17.1211 255 255 255
10.4288 -15.958 23.6128 255 255 255
17.3538 -13.525 -92.3531 255 255 255
-3.78542 -32.5951 -77.9536 255 255 255
52.5414 -62.4523 3.15292 255 255 255
58.7141 -54.1336 1.04677 255 255 255
13.3838 27.1256 -11.3287 255 255 255
-20.2161 -77.5682 -20.4308 255 255 255
54.5652 63.0502 -40.1203 255 255 255
-2.99515 54.503 -5.51753 255 255 255
15.8972 -71.6585 -15.8861 255 255 255
-30.5374 3.04777 -88.91 255 255 255
-22.9187 -12.1158 17.2308 255 255 255
2.63024 -35.3983 -32.6034 255 255 255
42.1481 -10.5976 -78.0925 255 255 255
32.2399 35.8521 -64.4666 255 255 255
-6.10033 75.6307 -14.4966 255 255 255
-39.519 23.482 -68.9777 255 255 255
-43.2393 -15.8922 -76.8819 255 255 255
17.9669 -13.9023 -55.4083 255 255 255
69.3833 63.4615 -23.0055 255 255 255
-22.7067 -37.3392 -9.50799 255 255 255
55.1025 26.9705 -82.3491 255 255 255
67.1048 33.4461 -42.9844 255 255 255
28.6006 59.4111 29.9113 255 255 255
30.7115 -63.0029 -59.7073 255 255 255
47.381 4.35762 -80.8575 255 255 255
14.4275 66.9827 28.2144 255 255 255
-2.29315 42.2661 -33.522 255 255 255
-23.2766 -6.53345 -48.6853 255 255 255
-6.22164 -0.247613 50.8177 255 255 255
-23.4315 -22.1923 -9.41631 255 255 255
-6.11517 9.33636 58.5683 255 255 255
-43.8498 2.88953 10.4391 255 255 255
-24.4764 -0.453848 -26.7793 255 255 255
-30.9558 -67.9056 -18.0469 255 255 255
17.0098 -13.4199 -62.9382 255 255 255
-18.2006 -54.5002 -47.1351 255 255 255
69.7317 38.1402 -17.6039 255 255 255
4.31316 12.7044 2.84062 255 255 255
67.3091 -29.8592 23.534 255 255 255
61.8453 38.5221 -0.955164 255 255 255
66.8002 5.84778 -82.2333 255 255 255
-24.3082 44.6015 -44.5283 255 255 255
72.4517 -50.1264 -6.0885 255 255 255
-53.7602 17.6849 -47.7951 255 255 255
23.8632 5.64323 -83.8043 255 255 255
-40.4374 46.9673 -37.6704 255 255 255
-41.8146 -17.1213 6.18284 255 255 255
-1.24561 -52.0894 -19.6851 255 255 255
68.9094 3.45369 -73.7538 255 255 255
77.3078 -79.6382 -21.9742 255 255 255
53.5262 -34.5019 -69.296 255 255 255
-51.7798 28.0269 -34.9328 255 255 255
48.2534 73.2606 21.9335 255 255 255
6.67676 -9.07537 -1.30925 255 255 255
43.0652 67.6296 13.0441 255 255 255
59.7102 54.7803 10.0208 255 255 255
-36.2128 -41.3275 11.2415 255 255 255
-10.7874 19.9429 -0.436467 255 255 255
-33.1873 -43.4206 8.3371 255 255 255
17.1696 -32.6748 -68.0071 255 255 255
49.4144 -14.7793 -0.70093 255 255 255
-12.2746 13.4167 51.4787 255 255 255
39.2746 -53.876 -31.0652 255 255 255
0.099388 -20.0513 -57.7797 255 255 255
-35.0973 28.8588 -27.0245 255 255 255
-27.3002 -69.2439 -5.6454 255 255 255
5.58723 -22.4135 65.7344 255 255 255
69.3006 45.7692 33.084 255 255 255
-16.2225 -66.093 -47.9782 255 255 255
-0.167971 -51.4521 -37.3259 255 255 255
59.1767 16.1968 -28.8315 255 255 255
36.8799 -5.19839 -64.1346 255 255 255
-18.7928 44.8838 -39.9176 255 255 255
42.0037 1.22556 12.4505 255 255 255
-17.117 -76.8837 -34.1164 255 255 255
39.618 30.8172 -67.8855 255 255 255
5.31101 23.6649 -54.7303 255 255 255
36.4765 8.84214 -58.5128 255 255 255
28.9746 53.3244 0.498557 255 255 255
-34.0095 40.8788 -4.40507 255 255 255
-56.6397 47.5173 -15.3568 255 255 255
71.9505 36.1863 -7.72995 255 255 255
48.2297 -0.731597 67.2465 255 255 255
19.6 -29.7543 46.1191 255 255 255
60.8833 -28.5593 -70.2443 255 255 255
-8.53445 -10.9315 -96.9643 255 255 255
66.8639 10.3564 41.3642 255 255 255
47.4401 -30.3249 -29.2009 255 255 255
27.1846 59.2101 -24.3605 255 255 255
42.0915 -20.8284 29.1602 255 255 255
70.1187 -34.6086 9.84765 255 255 255
-28.1216 -6.81817 72.9716 255 255 255
-31.2224 39.2162 54.1084 255 255 255
-37.0893 6.23456 -61.5018 255 255 255
56.2893 68.0143 -27.5059 255 255 255
-36.9066 5.38941 -14.8311 255 255 255
-17.1449 55.3249 23.1644 255 255 255
59.666 -0.520469 -90.5661 255 255 255
-7.08095 -43.502 -53.18 255 255 255
-19.3268 -57.8412 -17.4741 255 255 255
-12.7051 43.2321 -24.3234 255 255 255
39.6382 58.9352 7.62378 255 255 255
-29.4626 33.5796 -58.8291 255 255 255
21.4965 -57.7529 -35.0373 255 255 255
81.797 -27.7098 31.6747 255 255 255
-8.5144 -53.4161 -36.7608 255 255 255
-30.7687 -71.5428 -0.849588 255 255 255
-2.2937 28.6879 -48.478 255 255 255
11.7184 24.5954 -22.9717 255 255 255
-29.26 -24.5163 -3.03803 255 255 255
-40.5646 59.628 -15.9208 255 255 255
-58.953 80.1134 22.2564 255 255 255
59.0632 -28.2492 0.256281 255 255 255
22.1706 -9.03729 -35.3416 255 255 255
23.4918 -49.6264 -55.85 255 255 255
14.532 -11.6017 8.05119 255 255 255
-26.2086 5.42781 -42.8615 255 255 255
61.7179 -57.4192 7.95872 255 255 255
70.2748 85.1498 7.31092 255 255 255
-38.3686 11.8842 -4.41748 255 255 255
72.0536 -61.5482 -33.4709 255 255 255
-36.5578 -3.90095 -27.9105 255 255 255
23.0621 34.3721 -2.19844 255 255 255
-13.6021 81.0686 -8.1408 255 255 255
17.5025 -11.9519 -22.7993 255 255 255
63.0429 -4.0364 -50.6829 255 255 255
56.4309 -34.2137 -25.8189 255 255 255
-42.8759 7.26452 35.2209 255 255 255
37.5303 47.3432 -5.10065 255 255 255
-2.32458 17.7264 -8.00439 255 255 255
65.2794 59.032 14.7918 255 255 255
58.2797 1.97005 -26.4214 255 255 255
-24.8782 55.7526 -36.2222 255 255 255
49.047 10.575 -2.31694 255 255 255
31.6062 -20.0745 -30.8034 255 255 255
17.6426 -3.4331 39.6406 255 255 255
18.5329 -60.4621 -52.852 255 255 255
-38.2759 65.9998 27.2842 255 255 255
33.7959 -20.3349 -62.2431 255 255 255
-41.2346 46.3232 -9.4387 255 255 255
23.1641 -23.6027 -57.4035 255 255 255
63.5726 49.7967 38.8102 255 255 255
61.1894 -8.45202 -58.4041 255 255 255
29.1066 -30.2414 31.5559 255 255 255
-48.6153 12.46 -4.92157 255 255 255
37.9259 1.63956 -55.845 255 255 255
36.2643 -25.1128 54.716 255 255 255
-52.7805 69.3394 8.40758 255 255 255
-9.1205 -37.0507 -21.1182 255 255 255
46.0224 -38.7652 3.26717 255 255 255
-38.7307 -29.3175 -58.5688 255 255 255
25.037 -39.7668 -6.70558 255 255 255
15.9742 7.53672 -77.0899 255 255 255
40.8393 -19.1283 -34.3775 255 255 255
72.1498 -25.1426 21.7259 255 255 255
64.7233 -27.4921 -61.606 255 255 255
20.5586 24.1621 37.5455 255 255 255
-11.4551 -11.1625 15.926 255 255 255
11.5098 -26.529 -47.0089 255 255 255
-23.8464 26.8655 23.6936 255 255 255
-22.3339 61.5293 1.47871 255 255 255
-34.2225 -48.1006 -76.5666 255 255 255
29.3522 -2.10871 -80.5862 255 255 255
-44.2011 20.1174 -43.2822 255 255 255
-56.2544 36.5038 -29.7234 255 255 255
-46.0965 22.3323 -67.5256 255 255 255
17.3804 31.3286 42.153 255 255 255
7.10034 -63.5801 -7.23711 255 255 255
6.81832 -6.43334 -10.5875 255 255 255
60.6712 -4.22408 -91.1847 255 255 255
71.6959 46.4105 -9.21828 255 255 255
39.2067 -33.4186 13.2996 255 255 255
-36.6784 -0.555918 74.3573 255 255 255
-41.6189 -15.9076 58.5938 255 255 255
27.5694 45.3131 -50.7128 255 255 255
4.23924 19.4471 23.0959 255 255 255
-20.0175 -0.312619 4.33022 255 255 255
39.6718 -38.0487 3.70769 255 255 255
-42.2231 -25.4713 -47.8054 255 255 255
9.7065 2.94996 -65.7712 255 255 255
-41.1598 4.4437 -81.3777 255 255 255
-2.32714 -26.9572 -13.3687 255 255 255
-23.6661 41.9598 -15.2512 255 255 255
60.0313 31.9543 16.2208 255 255 255
-1.31373 59.2429 -17.8517 255 255 255
-4.53364 14.4342 -85.9183 255 255 255
23.4605 -11.4549 14.8727 255 255 255
11.0534 1.00619 -8.34019 255 255 255
0.0527502 -37.4341 22.8333 255 255 255
-50.3293 50.1839 19.3258 255 255 255
-58.8413 54.6461 -0.338863 255 255 255
18.7178 -7.33253 82.9014 255 255 255
66.6545 23.8254 8.07018 255 255 255
30.337 -87.4754 -34.517 255 255 255
-15.4101 -83.9413 -67.8125 255 255 255
42.9688 33.1008 -75.0109 255 255 255
-19.732 42.4793 8.93836 255 255 255
8.77583 3.47368 -59.4668 255 255 255
-38.3594 75.0456 10.6933 255 255 255
24.0106 -47.7184 -20.2269 255 255 255
-27.6516 -76.2905 -26.9078 255 255 255
-34.2069 -11.6767 -93.1836 255 255 255
25.3164 47.9646 -2.72696 255 255 255
59.2559 5.1049 63.0424 255 255 255
44.245 19.4455 -78.7191 255 255 255
-7.67489 17.6543 -6.24473 255 255 255
-23.964 -82.3662 -42.2876 255 255 255
-22.9419 -33.0337 -62.4246 255 255 255
76.8003 -31.2698 -27.1173 255 255 255
60.1759 51.4003 -36.6902 255 255 255
35.0058 3.65458 20.1496 255 255 255
18.5182 -23.6834 52.2487 255 255 255
-31.5631 -27.984 -27.7472 255 255 255
5.85906 -42.4618 -41.2536 255 255 255
-1.12435 -64.6146 -42.5939 255 255 255
-33.0852 -58.8517 2.82512 255 255 255
3.3313 29.8689 -38.0274 255 255 255
-44.5288 -30.021 -63.388 255 255 255
-28.1524 25.8557 57.1791 255 255 255
24.0033 -5.95251 -4.08395 255 255 255
52.9614 -48.9997 -60.2074 255 255 255
36.9513 -17.1413 -63.9426 255 255 255
61.2015 28.7113 -64.7747 255 255 255
43.139 8.7498 8.68472 255 255 255
-38.8408 -54.1601 -43.6087 255 255 255
8.34492 81.8326 5.16061 255 255 255
58.8318 67.2563 -24.7079 255 255 255
57.052 -38.0976 16.7409 255 255 255
-0.240352 16.4357 -81.6055 255 255 255
55.0001 9.78327 -52.517 255 255 255
14.3878 16.4505 -57.9485 255 255 255
20.0864 -25.9557 -9.00845 255 255 255
62.7093 -10.0317 21.7802 255 255 255
-42.5246 67.9019 10.7936 255 255 255
-17.4193 9.67937 -62.1257 255 255 255
-42.3811 -19.6009 -15.182 255 255 255
60.2496 -31.6909 -53.717 255 255 255
63.8371 41.0341 10.9315 255 255 255
15.6966 -80.4668 -44.3861 255 255 255
59.6726 62.2214 4.77683 255 255 255
49.4518 -28.2754 -41.8698 255 255 255
-48.9662 22.6966 -12.1856 255 255 255
38.065 90.2854 -1.73466 255 255 255
52.1986 -83.9229 -30.0934 255 255 255
53.3511 -42.5588 -28.0905 255 255 255
7.51372 -64.764 -48.2948 255 255 255
