ply
format ascii 1.0
element vertex 504
property float x
property float y
property float z
property uchar red
property uchar green
property uchar blue
end_header
-0 -0 -3 0 255 0
-0.0571798 -0.0111954 -2.94565 0 255 0
-0.125328 -0.000751061 -2.90571 0 255 0
-0.194253 0.0320868 -2.88292 0 255 0
0.207891 0.506371 0.0834977 255 255 255
-0.0573933 -0.352076 -0.915076 255 255 255
0.204702 -0.908165 0.693413 255 255 255
-0.815869 0.670949 0.311203 255 255 255
0.98212 -0.770244 -0.0742121 255 255 255
-0.717926 -0.733693 0.499441 255 255 255
-0.520675 0.961063 -0.263416 255 255 255
-0.12783 0.628799 -0.326215 255 255 255
0.537576 0.65264 0.872758 255 255 255
-0.515822 0.34927 -0.043356 255 255 255
0.403036 0.973601 -0.718633 255 255 255
-0.00886368 0.818497 0.260886 255 255 255
-0.690331 0.254917 0.313781 255 255 255
0.185263 0.358075 -0.56507 255 255 255
0.784909 -0.308969 0.151351 255 255 255
-0.243387 0.504033 -0.183521 255 255 255
-0.662197 0.397646 0.974148 255 255 255
0.283671 0.435035 0.611812 255 255 255
0.379742 0.603752 -0.209613 255 255 255
0.616753 -0.553318 0.688272 255 255 255
0.610982 0.944848 0.293302 255 255 255
-0.416888 0.32063 0.0974572 255 255 255
-0.0858442 -0.79701 0.657858 255 255 255
0.95828 -0.819816 0.6801 255 255 255
0.745908 0.61161 -0.211446 255 255 255
0.223448 0.990696 0.921637 255 255 255
-0.783439 0.00126957 -0.774906 255 255 255
0.536842 -0.527314 0.347403 255 255 255
0.271048 -0.0430659 -0.671971 255 255 255
0.29302 0.45151 0.934496 255 255 255
-0.941637 -0.890862 -0.695094 255 255 255
-0.115536 -0.157551 0.724333 255 255 255
-0.746028 0.69331 0.755548 255 255 255
0.74922 -0.840942 0.711136 255 255 255
-0.599864 -0.596775 -0.131752 255 255 255
-0.351159 -0.456838 0.863075 255 255 255
0.67681 0.407626 0.331412 255 255 255
-0.315994 -0.228843 0.181189 255 255 255
0.193756 -0.878248 -0.771744 255 255 255
-0.678369 -0.400862 0.741686 255 255 255
-0.056185 0.582611 -0.230352 255 255 255
0.295852 -0.786832 -0.299564 255 255 255
-0.884857 -0.701683 0.988778 255 255 255
0.36553 0.931627 -0.516938 255 255 255
-0.0677526 0.15815 0.281203 255 255 255
-0.0995815 0.291843 0.797584 255 255 255
-0.0371239 0.394585 -0.452889 255 255 255
-0.119066 -0.863009 -0.540261 255 255 255
0.231022 -0.201147 0.129237 255 255 255
-0.603851 0.324886 0.123907 255 255 255
0.892325 -0.100762 -0.236221 255 255 255
-0.976149 0.532181 -0.742903 255 255 255
-0.267616 -0.923573 -0.584064 255 255 255
-0.610267 -0.822838 -0.351889 255 255 255
0.484727 -0.712604 -0.634364 255 255 255
-0.919431 0.857073 0.263695 255 255 255
0.70686 0.570833 0.36518 255 255 255
-0.757099 -0.12582 -0.3629 255 255 255
-0.491905 -0.543964 0.760401 255 255 255
-0.803044 0.459733 0.939043 255 255 255
-0.0729516 -0.851064 0.760864 255 255 255
-0.976258 -0.299856 -0.121321 255 255 255
0.949595 -0.0929985 0.894655 255 255 255
-0.830065 -0.926067 -0.583006 255 255 255
0.581984 0.427094 0.851733 255 255 255
0.424819 -0.0832653 -0.930964 255 255 255
-0.506471 0.13122 0.762464 255 255 255
-0.607317 -0.530262 0.333565 255 255 255
-0.751705 0.226369 -0.0266633 255 255 255
0.0572894 -0.261311 0.63057 255 255 255
-0.170878 0.684536 -0.463009 255 255 255
0.960478 0.363747 -0.224311 255 255 255
-0.850495 0.128638 0.765569 255 255 255
-0.617526 0.664271 -0.95163 255 255 255
0.559286 0.38685 0.943765 255 255 255
-0.189888 0.124995 0.888017 255 255 255
-0.00842873 0.98363 -0.878017 255 255 255
0.0630909 0.856076 0.986576 255 255 255
0.650661 0.721621 0.0668227 255 255 255
-0.0958931 -0.363282 -0.216767 255 255 255
0.0513535 -0.363314 -0.7959 255 255 255
0.697607 -0.02464 -0.789117 255 255 255
-0.322473 0.805711 0.773531 255 255 255
-0.933346 -0.714968 -0.165701 255 255 255
-0.47014 -0.11183 -0.451551 255 255 255
-0.607801 -0.212605 0.0117095 255 255 255
-0.176448 0.424372 0.970858 255 255 255
-0.0481098 0.921488 -0.480811 255 255 255
0.838099 -0.347756 0.438591 255 255 255
-0.41587 -0.68442 -0.689176 255 255 255
0.507603 -0.979128 -0.16574 255 255 255
0.51481 0.440724 0.985398 255 255 255
-0.800853 0.42705 0.150848 255 255 255
0.871895 0.99057 -0.611317 255 255 255
-0.266861 0.247098 -0.510016 255 255 255
0.090828 0.88728 -0.860471 255 255 255
-0.513886 0.921403 -0.802575 255 255 255
0.700872 0.606218 -0.900366 255 255 255
-0.411841 -0.803551 -0.757324 255 255 255
0.151244 -0.759926 -0.847257 255 255 255
0.759885 -0.625135 -0.580299 255 255 255
-0.343885 -0.213933 -0.252304 255 255 255
0.526124 -0.0415489 0.760985 255 255 255
0.877864 -0.60167 -0.718012 255 255 255
0.0261846 -0.473584 -0.971004 255 255 255
0.711348 0.927528 0.687897 255 255 255
-0.0426584 -0.516943 -0.226084 255 255 255
0.859805 -0.137279 -0.0100539 255 255 255
0.706329 -0.633656 0.198447 255 255 255
0.777239 0.513068 0.100034 255 255 255
0.119267 -0.596656 0.195206 255 255 255
-0.204987 0.491734 0.505206 255 255 255
0.600424 0.0565759 0.704523 255 255 255
0.390487 -0.616305 -0.440654 255 255 255
0.162553 -0.850748 -0.440703 255 255 255
0.530264 0.0747534 0.654637 255 255 255
0.747619 -0.32307 0.680762 255 255 255
-0.905373 0.846282 0.934109 255 255 255
0.992152 0.827139 -0.00482933 255 255 255
0.597727 0.578626 0.516435 255 255 255
0.408318 0.371477 -0.453325 255 255 255
0.251983 0.844567 0.105521 255 255 255
0.810279 0.192018 0.197662 255 255 255
-0.644137 -0.0166801 0.461453 255 255 255
-0.281783 0.132545 0.456153 255 255 255
0.706573 -0.302113 -0.331156 255 255 255
-0.318161 0.0128241 -0.389642 255 255 255
0.13874 0.755848 -0.100232 255 255 255
0.970717 0.856099 -0.125745 255 255 255
0.309697 0.92535 0.541618 255 255 255
-0.936783 0.866574 0.529075 255 255 255
0.497852 -0.198339 -0.69726 255 255 255
0.81596 0.727762 -0.995843 255 255 255
-0.393337 -0.965118 0.360491 255 255 255
0.889992 -0.22325 -0.507027 255 255 255
-0.737203 0.605818 -0.480451 255 255 255
0.0817879 0.835731 0.441033 255 255 255
0.632837 0.759902 0.757817 255 255 255
0.141387 0.0822932 0.856864 255 255 255
0.0695017 -0.546796 -0.899333 255 255 255
-0.78455 -0.852389 0.249085 255 255 255
0.374371 0.0212711 0.422695 255 255 255
-0.154542 -0.961364 0.126539 255 255 255
-0.574742 -0.182983 -0.315538 255 255 255
0.60604 -0.611604 0.700878 255 255 255
0.349974 -0.833679 0.733303 255 255 255
-0.813977 -0.724309 -0.305943 255 255 255
-0.0246445 0.936553 0.138492 255 255 255
0.704063 -0.0349131 0.631139 255 255 255
0.636198 -0.146751 0.33843 255 255 255
-0.0772328 0.909929 0.455623 255 255 255
-0.671145 -0.304988 -0.367365 255 255 255
-0.877232 0.279086 0.660283 255 255 255
-0.924617 0.0850432 0.165199 255 255 255
-0.343444 0.109766 0.265657 255 255 255
0.284288 0.369609 0.735542 255 255 255
0.096855 -0.645466 -0.0604567 255 255 255
0.45322 0.500215 -0.47764 255 255 255
0.313614 -0.163143 -0.0116159 255 255 255
-0.108779 0.199935 0.571718 255 255 255
0.982491 -0.520791 0.388168 255 255 255
0.962564 -0.684025 0.768381 255 255 255
-0.854618 0.498685 -0.353958 255 255 255
-0.428917 0.925802 -0.755626 255 255 255
-0.978581 0.295835 0.987688 255 255 255
0.611696 0.435204 0.661818 255 255 255
-0.586288 0.115802 0.196914 255 255 255
0.327921 -0.836709 -0.258935 255 255 255
0.38148 0.402116 0.279054 255 255 255
-0.586392 -0.0169986 -0.0204956 255 255 255
0.583906 -0.812166 0.867422 255 255 255
-0.873337 0.60141 -0.863538 255 255 255
-0.434043 0.111424 -0.682339 255 255 255
-0.339726 -0.533132 -0.44919 255 255 255
0.622997 -0.493669 -0.504606 255 255 255
0.0347197 -0.508467 0.259365 255 255 255
0.922802 0.863921 -0.951526 255 255 255
-0.786365 0.753456 -0.0565992 255 255 255
0.67999 0.720751 -0.504344 255 255 255
0.743192 0.283077 0.0947097 255 255 255
0.310117 -0.0797015 -0.506129 255 255 255
0.0165459 0.745243 -0.90495 255 255 255
-0.103004 -0.981859 0.0360042 255 255 255
0.869185 -0.770572 0.817233 255 255 255
-0.0467798 -0.796581 -0.23961 255 255 255
-0.949733 0.752122 0.566267 255 255 255
-0.224734 0.33815 0.133951 255 255 255
-0.847135 0.300166 -0.0434013 255 255 255
0.285351 0.0097485 0.735464 255 255 255
-0.420103 -0.67219 -0.60089 255 255 255
0.986255 -0.573993 -0.406763 255 255 255
-0.0587696 0.745411 -0.747009 255 255 255
0.0136385 -0.231407 0.956326 255 255 255
0.476273 0.242812 -0.893362 255 255 255
0.407428 -0.0747072 0.809038 255 255 255
-0.352347 -0.748165 -0.389215 255 255 255
-0.844269 -0.254413 0.326341 255 255 255
0.0648816 0.834407 -0.289339 255 255 255
-0.881903 0.280917 0.910935 255 255 255
0.705962 0.900082 0.181624 255 255 255
0.699777 -0.645727 0.699038 255 255 255
0.891492 0.750894 -0.751018 255 255 255
0.159901 0.224497 -0.0958423 255 255 255
-0.461315 -0.636199 0.989719 255 255 255
-0.294049 -0.705502 -0.617545 255 255 255
0.334779 0.509275 -0.556652 255 255 255
-0.462788 0.711329 0.789405 255 255 255
0.855945 -0.910938 0.173517 255 255 255
0.468904 -0.501691 0.783023 255 255 255
0.940997 0.65388 -0.333943 255 255 255
-0.587473 -0.123765 0.98483 255 255 255
-0.105614 -0.552736 0.515996 255 255 255
-0.367189 0.0894027 -0.46578 255 255 255
0.22555 0.31841 -0.00784752 255 255 255
0.380132 -0.28197 0.593962 255 255 255
-0.478256 0.454008 -0.988347 255 255 255
-0.688759 0.204269 -0.631032 255 255 255
-0.727605 -0.479129 -0.308171 255 255 255
0.300459 0.55275 0.859744 255 255 255
-0.767308 0.941454 0.354807 255 255 255
-0.0379283 -0.490613 0.850296 255 255 255
-0.104571 0.327202 0.364448 255 255 255
-0.133177 0.426835 0.77338 255 255 255
-0.900014 0.533909 0.653329 255 255 255
-0.403494 -0.940788 -0.843894 255 255 255
-0.652399 -0.152062 -0.346864 255 255 255
-0.641923 -0.282909 -0.00370148 255 255 255
-0.0249664 -0.151689 0.577574 255 255 255
-0.151007 -0.493051 0.344932 255 255 255
-0.283027 0.0631846 0.230665 255 255 255
0.0168273 0.362098 0.964469 255 255 255
0.339059 0.918072 -0.496777 255 255 255
-0.513904 -0.384369 0.333022 255 255 255
0.874694 -0.786963 -0.753067 255 255 255
-0.608922 0.432331 0.776796 255 255 255
-0.261726 0.322237 -0.846608 255 255 255
-0.511126 -0.668741 0.631459 255 255 255
0.476808 0.152713 0.887687 255 255 255
-0.450187 0.0910769 0.464769 255 255 255
0.510358 -0.298219 0.612458 255 255 255
-0.921553 0.061798 0.240105 255 255 255
0.945225 -0.746585 -0.436436 255 255 255
-0.151259 -0.27768 -0.617105 255 255 255
0.98816 -0.918038 -0.309645 255 255 255
0.633056 -0.610934 0.702839 255 255 255
0.163382 0.754666 0.0881611 255 255 255
-0.364208 0.93173 0.106118 255 255 255
-0.570463 -0.642845 0.0739501 255 255 255
-0.58829 0.0817446 -0.311938 255 255 255
-0.896878 -0.83227 0.955837 255 255 255
0.832324 -0.423374 0.386722 255 255 255
0.773188 0.615905 0.304956 255 255 255
0.230935 0.244798 0.170526 255 255 255
-0.0890152 -0.53106 0.345854 255 255 255
0.165817 0.674127 -0.951742 255 255 255
-0.24629 0.312412 -0.961872 255 255 255
0.513659 -0.993915 -0.365853 255 255 255
0.631985 -0.883674 -0.305793 255 255 255
0.0666203 0.332197 0.220376 255 255 255
-0.706997 -0.90294 -0.534492 255 255 255
0.802763 0.972423 0.258008 255 255 255
-0.140867 0.626514 0.496991 255 255 255
-0.0573111 -0.922886 -0.501292 255 255 255
-0.611668 0.946244 -0.747884 255 255 255
-0.599911 -0.348278 0.28042 255 255 255
-0.188808 -0.204254 -0.528443 255 255 255
0.560106 0.495771 -0.789074 255 255 255
0.439478 0.93174 -0.266832 255 255 255
-0.141894 0.956968 0.559037 255 255 255
-0.706418 0.965766 -0.430522 255 255 255
-0.926865 0.642555 -0.641793 255 255 255
0.129104 0.271861 -0.509385 255 255 255
0.996085 0.768436 0.411406 255 255 255
-0.657954 -0.435272 -0.0629908 255 255 255
0.818839 0.968532 -0.531549 255 255 255
0.950778 0.615669 -0.0576308 255 255 255
0.303828 0.289464 0.925985 255 255 255
0.274109 -0.374422 -0.976622 255 255 255
0.665556 0.696877 -0.705272 255 255 255
0.105251 0.416799 0.93821 255 255 255
-0.126484 0.755893 0.0964126 255 255 255
-0.52999 0.368706 -0.453764 255 255 255
-0.349062 -0.562743 0.801307 255 255 255
-0.595684 -0.211672 -0.146984 255 255 255
-0.331277 -0.503857 0.867774 255 255 255
-0.912323 -0.0566383 0.428782 255 255 255
-0.559138 0.229257 -0.137634 255 255 255
-0.837172 -0.72381 -0.537229 255 255 255
0.120274 0.354822 -0.626129 255 255 255
-0.575735 -0.277411 -0.739093 255 255 255
0.964928 0.417199 0.274114 255 255 255
-0.11263 0.0421506 0.262618 255 255 255
0.77525 -0.807924 0.16406 255 255 255
0.823565 0.276485 0.469389 255 255 255
0.962199 0.67404 -0.754155 255 255 255
-0.446142 0.931006 -0.00743417 255 255 255
0.861334 -0.787913 -0.363995 255 255 255
-0.988178 0.737073 -0.14267 255 255 255
0.290449 0.798659 -0.709973 255 255 255
-0.716907 0.958293 0.213842 255 255 255
-0.895695 -0.264743 0.110927 255 255 255
-0.309275 -0.575436 -0.35227 255 255 255
0.991984 0.560338 -0.653375 255 255 255
0.862856 -0.973331 -0.879622 255 255 255
0.692685 0.0695997 -0.925234 255 255 255
-0.913552 0.702842 -0.00857814 255 255 255
0.633018 0.490437 0.979215 255 255 255
-0.109699 -0.190849 0.0880685 255 255 255
0.558646 0.52132 0.850958 255 255 255
0.795497 0.366888 0.707064 255 255 255
-0.873573 -0.640137 0.00844356 255 255 255
-0.3275 0.190256 0.298594 255 255 255
-0.820554 -0.638695 -0.0750884 255 255 255
0.0918037 0.156878 -0.895304 255 255 255
0.580226 -0.368601 0.145788 255 255 255
-0.407109 -0.371912 0.779067 255 255 255
0.409491 -0.581563 -0.473439 255 255 255
-0.176155 0.2496 -0.64113 255 255 255
-0.667867 0.608918 0.11398 255 255 255
-0.784271 -0.868095 -0.418718 255 255 255
-0.219279 -0.987914 0.711032 255 255 255
0.896092 0.0229117 0.875407 255 255 255
-0.579782 -0.445159 -0.804841 255 255 255
-0.263809 -0.364269 -0.678808 255 255 255
0.800054 0.288289 0.00477734 255 255 255
0.46428 0.430527 -0.563941 255 255 255
-0.367719 0.886407 0.0723913 255 255 255
0.453248 -0.270722 0.358229 255 255 255
-0.63932 -0.755443 -0.702442 255 255 255
0.554744 0.894783 -0.341592 255 255 255
-0.0165058 0.740399 -0.261259 255 255 255
0.469033 0.547993 -0.384538 255 255 255
0.344811 0.508928 0.653799 255 255 255
-0.635133 0.518015 0.406723 255 255 255
-0.967457 0.754632 0.396235 255 255 255
0.999165 0.297648 0.412753 255 255 255
0.466961 -0.813766 0.876458 255 255 255
0.00694404 -0.927531 0.441067 255 255 255
0.822909 0.140376 -0.883583 255 255 255
-0.268915 0.835344 -0.929063 255 255 255
0.799673 -0.47454 0.68274 255 255 255
0.540891 -0.269673 -0.413826 255 255 255
0.349487 0.819694 0.386301 255 255 255
0.388955 -0.696653 0.302185 255 255 255
0.821677 -0.735936 -0.0596705 255 255 255
-0.722294 -0.808943 0.992085 255 255 255
-0.639614 -0.0556255 0.985779 255 255 255
-0.739607 0.71121 -0.381777 255 255 255
0.808503 0.890719 0.402008 255 255 255
-0.784326 0.217769 0.199052 255 255 255
-0.377372 0.38809 0.781493 255 255 255
0.870165 0.708921 -0.870649 255 255 255
-0.345527 -0.084125 -0.797716 255 255 255
-0.628643 -0.628928 -0.405233 255 255 255
-0.291648 0.697434 0.208628 255 255 255
0.497839 0.476065 0.707102 255 255 255
-0.535692 0.960943 -0.235442 255 255 255
0.0847325 -0.528641 -0.664085 255 255 255
0.991065 -0.884589 0.269555 255 255 255
-0.423309 -0.402872 -0.551251 255 255 255
-0.895668 -0.997629 -0.221749 255 255 255
-0.13293 0.746011 -0.170028 255 255 255
0.0516679 0.424402 0.118217 255 255 255
-0.713933 -0.297516 -0.0223166 255 255 255
-0.693062 0.865007 0.463587 255 255 255
-0.942127 0.754658 0.97049 255 255 255
0.705154 -0.566839 -0.00179602 255 255 255
0.181984 0.116457 -0.237724 255 255 255
0.162473 -0.209893 -0.823821 255 255 255
0.00661577 -0.347333 0.329502 255 255 255
-0.561679 0.466227 -0.265512 255 255 255
0.661004 -0.992495 -0.26626 255 255 255
0.997081 0.724615 0.914986 255 255 255
-0.766947 0.187289 0.209132 255 255 255
0.873727 -0.665939 -0.792472 255 255 255
-0.816941 0.242585 0.0821083 255 255 255
0.218125 0.312399 0.391965 255 255 255
-0.249606 0.968688 0.65921 255 255 255
0.0844055 -0.0389006 -0.128686 255 255 255
0.848399 0.244059 -0.467179 255 255 255
0.671808 -0.369653 -0.420331 255 255 255
-0.861624 -0.233981 0.543465 255 255 255
0.464936 0.468279 0.48376 255 255 255
-0.191828 0.218064 0.172906 255 255 255
0.878246 0.360001 0.787296 255 255 255
0.748151 0.0877355 -0.135068 255 255 255
-0.441115 0.980028 0.178844 255 255 255
0.617422 -0.024695 0.365007 255 255 255
0.312988 -0.0923772 -0.28327 255 255 255
0.0291318 -0.534645 0.588332 255 255 255
0.0510129 -0.375429 -0.908005 255 255 255
-0.67123 0.511277 0.913675 255 255 255
0.404341 0.231049 -0.600651 255 255 255
-0.731987 0.645219 0.406423 255 255 255
0.213074 0.160245 -0.541114 255 255 255
0.805665 0.0276861 0.959879 255 255 255
0.831307 0.2724 -0.576453 255 255 255
0.169026 -0.815645 0.268222 255 255 255
-0.932826 0.221716 0.245672 255 255 255
0.467128 0.419532 -0.46297 255 255 255
0.261322 -0.973396 0.541389 255 255 255
-0.86653 0.755571 0.75742 255 255 255
-0.405809 -0.330422 -0.278212 255 255 255
0.462865 -0.694873 -0.102794 255 255 255
-0.914678 0.245852 -0.476803 255 255 255
0.136055 -0.566812 -0.229261 255 255 255
0.162463 0.787858 -0.549426 255 255 255
0.457317 -0.0609342 -0.379295 255 255 255
0.854596 -0.735656 0.163785 255 255 255
0.855467 0.0582028 -0.811639 255 255 255
0.1228 -0.183391 0.793416 255 255 255
-0.411459 -0.343484 0.235663 255 255 255
-0.00975805 0.0337169 -0.480396 255 255 255
-0.530395 0.0674181 0.585426 255 255 255
-0.424101 0.674688 0.61651 255 255 255
-0.875512 0.176152 -0.886326 255 255 255
0.365709 0.658232 -0.735757 255 255 255
-0.818091 0.687589 -0.12564 255 255 255
-0.977404 0.768141 0.1546 255 255 255
-0.833671 0.97743 -0.351491 255 255 255
0.0799042 -0.133821 0.878012 255 255 255
-0.198695 -0.850208 -0.394066 255 255 255
-0.0938087 -0.0669278 -0.00913059 255 255 255
0.867733 0.657181 -0.942454 255 255 255
0.996155 0.431532 0.436508 255 255 255
0.346524 -0.705724 0.0443773 255 255 255
-0.827762 -0.710841 0.978252 255 255 255
-0.918547 -0.739102 0.662487 255 255 255
0.361728 0.909183 -0.0457466 255 255 255
-0.121649 -0.0723289 0.650988 255 255 255
-0.506942 -0.0811419 0.159636 255 255 255
0.365895 -0.684367 -0.0633515 255 255 255
-0.926438 0.175258 -0.447746 255 255 255
0.0331218 0.609308 -0.497114 255 255 255
-0.793169 0.906933 -0.637926 255 255 255
-0.27682 -0.28515 -0.146734 255 255 255
-0.469694 0.61818 0.312293 255 255 255
0.758309 0.0358897 0.581355 255 255 255
-0.0957339 0.805061 0.438243 255 255 255
-0.158445 0.999267 -0.626242 255 255 255
0.138036 -0.419733 0.3104 255 255 255
-0.0120378 -0.00661162 0.180865 255 255 255
-0.293647 -0.781348 0.179082 255 255 255
-0.883357 0.433481 0.756081 255 255 255
-0.978288 0.682188 0.547785 255 255 255
-0.00898028 -0.976148 0.985139 255 255 255
0.864104 0.00311625 0.44161 255 255 255
0.18816 -0.990276 -0.879395 255 255 255
-0.681737 -0.585925 -0.916699 255 255 255
0.622862 0.990674 -0.393879 255 255 255
-0.424482 0.377163 0.515789 255 255 255
0.00887918 0.542687 -0.465941 255 255 255
-0.647558 0.775815 0.847154 255 255 255
0.122866 -0.53868 -0.441339 255 255 255
-0.8699 -0.841474 -0.481703 255 255 255
-0.771842 0.904691 -0.718396 255 255 255
0.27489 0.474228 0.502873 255 255 255
0.64638 -0.722841 0.866343 255 255 255
0.63812 0.873072 -0.529279 255 255 255
-0.275596 0.209338 0.164912 255 255 255
-0.852859 -0.826282 -0.601224 255 255 255
-0.611069 0.192556 -0.661648 255 255 255
0.982332 -0.352115 -0.459771 255 255 255
0.858075 0.779539 0.163506 255 255 255
0.335182 -0.299275 0.452083 255 255 255
-0.00582161 -0.909433 0.57136 255 255 255
-0.742921 -0.0917573 -0.318419 255 255 255
-0.141499 -0.217622 -0.669028 255 255 255
-0.310836 -0.510872 -0.74807 255 255 255
-0.904586 -0.846893 -0.0710248 255 255 255
-0.0548613 0.647379 -0.0370325 255 255 255
-0.994475 0.297412 -0.609478 255 255 255
-0.629808 -0.248656 0.972946 255 255 255
0.173555 -0.160762 0.0931275 255 255 255
0.653736 -0.212679 -0.935841 255 255 255
0.455111 0.279957 -0.635262 255 255 255
0.900358 0.80198 -0.297518 255 255 255
0.481448 -0.140722 0.346669 255 255 255
-0.941606 -0.266003 -0.664019 255 255 255
0.0625735 0.813218 0.815209 255 255 255
0.844091 0.85104 0.429984 255 255 255
0.613899 -0.830523 0.0284203 255 255 255
-0.0882932 0.941805 -0.623215 255 255 255
0.755119 0.454593 -0.328776 255 255 255
0.118988 0.668688 -0.356077 255 255 255
0.084225 -0.360488 -0.109109 255 255 255
0.740649 -0.537761 0.329487 255 255 255
-0.713424 0.690327 0.731648 255 255 255
-0.399413 0.703823 -0.417559 255 255 255
-0.897484 -0.086089 -0.142756 255 255 255
0.786291 -0.0676666 -0.707824 255 255 255
0.837192 0.187192 0.602756 255 255 255
-0.0434783 -0.757162 -0.928296 255 255 255
0.816018 0.506786 0.72423 255 255 255
0.587015 -0.118886 -0.566936 255 255 255
-0.903076 0.413843 0.213506 255 255 255
0.529617 0.928216 0.847241 255 255 255
0.513749 -0.948584 -0.953659 255 255 255
0.60586 -0.444395 -0.540674 255 255 255
-0.150756 -0.458921 -0.880964 255 255 255
