ply
format ascii 1.0
element vertex 504
property float x
property float y
property float z
property uchar red
property uchar green
property uchar blue
end_header
-0 -0 -0 0 0 255
-0.667984 -0.140933 0.0787099 0 0 255
-0.0494128 -0.0257583 0.000517564 0 0 255
-0.412875 -0.31851 0.0456666 0 0 255
0.729482 -0.256121 2.31657 255 255 255
-0.742794 -0.167112 3.62823 255 255 255
0.515427 0.768648 2.75703 255 255 255
-0.11722 -0.0341334 2.40428 255 255 255
-0.679378 -0.279631 3.00185 255 255 255
0.510164 -0.445158 2.56779 255 255 255
-0.162464 0.622436 2.28238 255 255 255
0.34425 0.773024 2.71515 255 255 255
-0.613875 -0.753282 3.32109 255 255 255
0.577421 -0.955625 3.63805 255 255 255
-0.59682 0.898286 3.01825 255 255 255
-0.579545 -0.43744 2.00592 255 255 255
0.649331 -0.627428 2.03654 255 255 255
-0.280297 -0.140027 3.6472 255 255 255
-0.0415239 0.227801 3.41533 255 255 255
0.0599414 -0.789746 3.70173 255 255 255
-0.53832 0.601675 3.98932 255 255 255
-0.268885 0.953836 3.39021 255 255 255
-0.831866 0.0380188 2.72403 255 255 255
0.186282 -0.962712 3.60221 255 255 255
-0.594946 0.693758 3.61954 255 255 255
0.533544 -0.766366 2.40244 255 255 255
-0.459502 0.432348 2.66078 255 255 255
0.794766 -0.631862 2.01711 255 255 255
-0.106791 0.369751 3.13321 255 255 255
0.904708 -0.623587 3.46079 255 255 255
-0.674991 -0.983256 3.46637 255 255 255
0.434386 -0.919899 3.59996 255 255 255
0.0742564 0.805574 2.1681 255 255 255
-0.812708 0.21758 3.72132 255 255 255
0.0875312 0.61771 2.06909 255 255 255
0.781057 0.466966 2.56903 255 255 255
0.415037 0.628796 2.18874 255 255 255
-0.185049 -0.201785 2.00512 255 255 255
0.334615 -0.923124 3.54707 255 255 255
-0.25139 -0.515089 2.87778 255 255 255
0.369988 -0.185716 3.48671 255 255 255
-0.952343 0.476752 3.30991 255 255 255
-0.564062 0.306695 3.83209 255 255 255
-0.229452 0.624358 3.79855 255 255 255
0.577692 0.428902 3.68084 255 255 255
-0.524785 0.616589 3.52835 255 255 255
0.643038 0.603267 3.06682 255 255 255
0.986822 -0.724403 2.86525 255 255 255
0.54058 0.487202 2.77936 255 255 255
-0.464946 0.382512 2.88855 255 255 255
-0.0700422 -0.686798 2.75174 255 255 255
-0.951628 0.91816 3.91062 255 255 255
-0.326252 -0.142068 2.02587 255 255 255
-0.305999 -0.782579 2.22973 255 255 255
-0.0669949 -0.908397 3.41706 255 255 255
-0.0432943 0.237453 3.56825 255 255 255
-0.984204 0.744133 3.76153 255 255 255
0.676691 0.53307 3.49058 255 255 255
-0.554907 0.766074 2.38484 255 255 255
-0.290626 -0.827564 2.03299 255 255 255
0.381486 -0.0493033 3.57794 255 255 255
-0.206889 -0.325061 3.01783 255 255 255
0.187289 -0.721957 3.41022 255 255 255
-0.154717 -0.574299 2.24837 255 255 255
0.171508 0.809898 3.66024 255 255 255
0.544982 0.31782 2.60492 255 255 255
-0.603383 0.0606675 3.939 255 255 255
0.291598 -0.197399 2.8184 255 255 255
0.184114 -0.674251 3.22471 255 255 255
-0.0797182 -0.272622 2.13513 255 255 255
-0.765256 0.476857 3.38928 255 255 255
-0.896267 -0.00360795 2.71751 255 255 255
-0.416906 0.702437 3.13542 255 255 255
-0.799499 0.588372 2.94164 255 255 255
0.750442 0.941136 3.22488 255 255 255
0.957038 -0.243603 2.63362 255 255 255
0.00316411 0.699797 2.22978 255 255 255
-0.946505 -0.674372 2.34306 255 255 255
0.804806 0.927623 2.33569 255 255 255
0.243951 0.103274 3.29768 255 255 255
0.625595 -0.0541157 2.57573 255 255 255
0.492603 0.295371 3.87159 255 255 255
-0.63699 0.0695389 3.93975 255 255 255
0.453388 -0.936738 3.5945 255 255 255
0.14562 -0.946344 2.0506 255 255 255
-0.737368 -0.851913 3.98533 255 255 255
0.0101546 0.899902 3.57291 255 255 255
-0.504131 0.985299 3.65849 255 255 255
-0.897506 -0.855243 3.98021 255 255 255
-0.355682 0.0794545 2.84357 255 255 255
0.734369 0.785385 3.51415 255 255 255
0.997242 0.633901 3.82135 255 255 255
-0.840893 0.0115144 3.42894 255 255 255
0.73455 0.549629 2.26507 255 255 255
-0.495321 0.890937 3.27836 255 255 255
-0.285683 -0.679773 2.58649 255 255 255
-0.850083 -0.962829 2.84414 255 255 255
0.414909 0.766431 2.3713 255 255 255
-0.0358423 0.318582 3.36807 255 255 255
0.428125 0.538023 2.50562 255 255 255
0.50759 0.600592 3.41171 255 255 255
0.304325 0.978977 3.48881 255 255 255
0.508256 0.365155 2.86256 255 255 255
0.697996 0.173161 3.76518 255 255 255
0.680748 0.83051 2.33654 255 255 255
0.277851 -0.95542 2.82341 255 255 255
-0.858805 0.44299 2.63145 255 255 255
-0.273866 0.0997132 3.94685 255 255 255
-0.96471 -0.322733 3.32901 255 255 255
-0.401014 0.424077 3.56191 255 255 255
-0.841652 -0.111702 2.14348 255 255 255
0.634229 0.719051 3.72513 255 255 255
-0.15263 -0.924813 2.4163 255 255 255
-0.0499325 0.699172 2.07284 255 255 255
-0.989525 -0.901377 3.24025 255 255 255
0.671278 0.192501 3.73899 255 255 255
-0.903102 0.808489 3.0359 255 255 255
0.138618 -0.0784646 2.46014 255 255 255
-0.0495061 -0.33418 3.82319 255 255 255
-0.160496 -0.0446262 3.42145 255 255 255
-0.0695554 -0.800966 3.64811 255 255 255
0.986285 -0.889313 3.63086 255 255 255
0.407136 0.0713343 2.62656 255 255 255
0.991297 0.576748 3.00813 255 255 255
0.137322 0.439587 2.9084 255 255 255
0.0143839 -0.550217 3.63519 255 255 255
-0.515139 0.105504 3.75967 255 255 255
0.820741 0.534824 2.76372 255 255 255
-0.210389 0.393396 2.96672 255 255 255
0.750771 -0.654792 3.00639 255 255 255
-0.904667 0.918369 2.97551 255 255 255
0.379507 0.0657215 3.20024 255 255 255
-0.168439 0.00218056 2.86275 255 255 255
-0.0147456 -0.760909 3.65824 255 255 255
0.518782 0.787603 3.21134 255 255 255
0.0509056 -0.457889 2.03369 255 255 255
-0.878848 0.652143 3.68028 255 255 255
-0.350687 0.622881 3.8639 255 255 255
0.77691 -0.796584 3.55247 255 255 255
-0.698713 0.674174 3.3769 255 255 255
0.627951 0.250255 2.36579 255 255 255
-0.723802 0.397826 2.29057 255 255 255
-0.181812 0.368528 2.70477 255 255 255
0.995459 -0.3425 2.12635 255 255 255
0.137225 -0.606058 3.95591 255 255 255
-0.662194 0.534519 3.40552 255 255 255
0.342023 0.472361 2.08002 255 255 255
-0.285518 -0.752977 2.16776 255 255 255
0.342182 -0.0754335 3.70585 255 255 255
0.750268 0.609717 2.19245 255 255 255
0.861443 -0.53835 3.63354 255 255 255
0.949151 -0.492731 2.30206 255 255 255
-0.1716 -0.145657 3.97792 255 255 255
-0.955492 0.615777 3.83159 255 255 255
0.548863 -0.165426 3.9138 255 255 255
0.840327 -0.597802 2.49929 255 255 255
-0.696439 0.61831 2.17181 255 255 255
-0.663484 -0.524123 3.16601 255 255 255
0.221459 0.516545 3.05539 255 255 255
0.357134 -0.184234 2.97427 255 255 255
0.30858 -0.602596 3.91722 255 255 255
0.472416 -0.825173 3.20469 255 255 255
0.955897 0.116963 3.32804 255 255 255
-0.43848 -0.347144 2.31662 255 255 255
0.756598 0.0630404 2.39929 255 255 255
-0.754116 0.642556 3.35377 255 255 255
0.74948 -0.0771538 3.39987 255 255 255
0.806331 -0.477031 3.29728 255 255 255
0.934452 -0.793599 3.38153 255 255 255
0.834601 0.579905 2.15047 255 255 255
0.190262 -0.443348 2.12701 255 255 255
0.769073 -0.530766 2.50028 255 255 255
0.349251 0.229732 3.59032 255 255 255
0.375199 -0.701444 3.4416 255 255 255
0.844162 -0.615768 2.84482 255 255 255
-0.520913 0.808386 3.71224 255 255 255
-0.81647 -0.878506 2.90123 255 255 255
0.751168 -0.360317 3.55436 255 255 255
-0.423304 -0.338591 2.21702 255 255 255
0.283213 0.262298 3.15088 255 255 255
0.283614 0.736023 3.57739 255 255 255
0.427843 -0.474353 2.05131 255 255 255
-0.346304 -0.0393713 3.98142 255 255 255
-0.873482 -0.121183 3.92904 255 255 255
0.110189 -0.819669 2.60947 255 255 255
-0.969922 0.591974 3.60243 255 255 255
0.537283 -0.984332 2.4702 255 255 255
-0.0696716 -0.00156654 2.64028 255 255 255
-0.82062 0.333006 3.82122 255 255 255
0.455595 -0.213267 2.89867 255 255 255
0.931479 0.0778813 2.799 255 255 255
0.478459 -0.777365 3.4025 255 255 255
0.62831 -0.258447 2.74567 255 255 255
0.210999 0.832683 3.28516 255 255 255
0.750561 0.396698 3.74844 255 255 255
0.856261 0.393246 3.87412 255 255 255
-0.957906 -0.594383 2.78211 255 255 255
0.191825 0.982582 3.33489 255 255 255
0.889648 0.462175 2.82087 255 255 255
-0.863484 -0.755043 2.15867 255 255 255
-0.318801 -0.249551 3.01369 255 255 255
0.114799 0.447809 2.34646 255 255 255
-0.509755 -0.915776 2.68332 255 255 255
-0.186676 0.911364 2.39667 255 255 255
-0.603826 0.22269 3.13602 255 255 255
-0.824711 0.788845 2.78066 255 255 255
0.129822 0.458968 3.63418 255 255 255
-0.822983 0.846123 2.6108 255 255 255
0.794824 -0.515419 2.54388 255 255 255
0.0825512 -0.485047 2.85275 255 255 255
-0.751225 0.245089 3.74924 255 255 255
0.2158 0.563888 3.55238 255 255 255
0.376557 0.217189 2.75438 255 255 255
-0.380121 0.872346 2.91021 255 255 255
-0.20618 0.146386 3.54394 255 255 255
0.606962 0.613731 3.85883 255 255 255
0.449609 0.858961 3.85679 255 255 255
0.910237 -0.914504 2.11415 255 255 255
0.0902462 -0.307265 2.06402 255 255 255
0.029452 -0.349683 3.27424 255 255 255
0.187142 0.903847 2.25292 255 255 255
0.338878 -0.290343 2.75505 255 255 255
-0.907373 0.621878 3.54948 255 255 255
-0.601553 0.376738 2.31507 255 255 255
-0.409685 -0.59335 2.82189 255 255 255
-0.496254 -0.832811 3.02262 255 255 255
0.652754 -0.447955 2.99232 255 255 255
0.871785 0.840339 2.32584 255 255 255
0.0436032 -0.554438 3.98907 255 255 255
0.530244 0.49834 3.77292 255 255 255
0.470901 0.866638 2.92016 255 255 255
-0.223815 -0.723938 2.68537 255 255 255
-0.527529 -0.444354 2.27342 255 255 255
0.410648 0.0205156 2.76609 255 255 255
-0.23401 0.909435 3.17246 255 255 255
0.291877 0.732467 2.40199 255 255 255
-0.654645 0.00217026 3.30136 255 255 255
0.463801 0.243149 2.54087 255 255 255
-0.942249 0.45211 3.53829 255 255 255
-0.502035 0.61782 3.82692 255 255 255
-0.794224 0.448608 3.82095 255 255 255
0.633062 -0.994004 3.04911 255 255 255
-0.0803586 -0.49948 3.06294 255 255 255
0.978287 -0.704511 2.55651 255 255 255
0.434068 0.6173 3.02616 255 255 255
0.349475 0.4935 2.63149 255 255 255
0.217367 0.734328 2.29813 255 255 255
-0.913737 0.58839 3.83537 255 255 255
-0.746404 0.0271856 2.3686 255 255 255
-0.781561 0.977835 3.10523 255 255 255
-0.572517 -0.411702 3.88646 255 255 255
0.351112 -0.023906 3.72205 255 255 255
-0.0159079 0.328834 3.97919 255 255 255
-0.107431 -0.268371 2.05527 255 255 255
-0.250903 0.760171 2.57688 255 255 255
-0.752715 0.432249 2.404 255 255 255
-0.878538 0.842337 3.13882 255 255 255
-0.76569 -0.524328 3.71022 255 255 255
0.241585 -0.812298 2.91988 255 255 255
0.895898 -0.802035 2.22179 255 255 255
-0.711528 -0.700422 2.6588 255 255 255
-0.144807 -0.445219 2.99236 255 255 255
-0.624601 -0.367398 2.95962 255 255 255
-0.726124 -0.912314 2.44245 255 255 255
0.655375 0.280442 2.08928 255 255 255
0.103713 -0.958314 2.44116 255 255 255
-0.0874604 0.589348 3.42925 255 255 255
-0.611153 0.958757 2.46015 255 255 255
0.603213 -0.681745 3.39394 255 255 255
0.936984 0.16739 2.05892 255 255 255
-0.832155 -0.851737 3.85382 255 255 255
0.483474 -0.176684 2.17733 255 255 255
-0.259725 0.117066 3.71944 255 255 255
-0.493326 -0.931257 2.08207 255 255 255
-0.32091 -0.948609 2.76148 255 255 255
-0.449852 -0.754496 3.95429 255 255 255
-0.00805291 -0.662022 2.68838 255 255 255
-0.0700447 0.990982 2.53367 255 255 255
-0.586786 0.698081 3.06794 255 255 255
-0.910626 -0.722218 3.23374 255 255 255
-0.343121 0.565941 3.5569 255 255 255
-0.523765 -0.0381426 2.74938 255 255 255
-0.418783 0.0610848 3.99107 255 255 255
-0.885919 -0.876306 2.88056 255 255 255
-0.635633 -0.291645 2.75703 255 255 255
-0.090497 -0.783915 3.33877 255 255 255
-0.122189 0.303488 2.27053 255 255 255
0.627287 0.0493223 3.46275 255 255 255
-0.199161 -0.721712 3.29692 255 255 255
-0.839349 0.824676 2.62426 255 255 255
-0.30949 -0.667716 2.39955 255 255 255
0.337953 0.6765 2.53029 255 255 255
-0.989848 -0.0690172 2.04772 255 255 255
-0.353871 0.350182 2.49021 255 255 255
0.858956 0.192231 3.7752 255 255 255
-0.333321 -0.199575 3.53026 255 255 255
-0.706968 -0.832345 2.00545 255 255 255
0.821719 0.786294 2.24013 255 255 255
-0.918638 0.905323 2.13965 255 255 255
-0.477903 0.707331 2.36347 255 255 255
0.495272 -0.142775 3.27381 255 255 255
0.354486 -0.783514 2.27116 255 255 255
-0.330914 -0.138472 3.8336 255 255 255
0.698691 -0.187673 2.99812 255 255 255
0.00958116 0.905999 2.55382 255 255 255
0.84643 0.698566 3.60159 255 255 255
0.223746 -0.921413 3.74153 255 255 255
0.542214 -0.892389 3.64287 255 255 255
-0.531395 -0.284481 3.18616 255 255 255
-0.686788 0.563446 2.47606 255 255 255
0.611402 -0.217076 2.37792 255 255 255
-0.261959 0.126908 3.18061 255 255 255
0.260915 -0.83597 2.72675 255 255 255
0.277619 -0.991553 2.45909 255 255 255
0.0338458 0.78838 2.5764 255 255 255
-0.810732 -0.733185 2.29582 255 255 255
0.669214 -0.782149 3.32589 255 255 255
0.46896 0.95834 2.11174 255 255 255
0.939282 -0.860257 3.66003 255 255 255
0.411335 0.63737 2.92358 255 255 255
0.500639 0.336548 3.8458 255 255 255
0.995447 0.572953 3.54347 255 255 255
0.269049 0.891738 2.19923 255 255 255
0.0323687 -0.973274 3.2011 255 255 255
0.827592 0.836437 3.44199 255 255 255
-0.669843 0.324816 3.92582 255 255 255
0.501576 0.116725 3.40251 255 255 255
0.285931 0.707114 3.71703 255 255 255
-0.453485 -0.87973 3.8312 255 255 255
0.552234 -0.359741 2.09274 255 255 255
0.5835 0.721584 3.24173 255 255 255
0.338881 0.399121 3.47973 255 255 255
-0.433314 0.730093 3.62491 255 255 255
-0.911812 0.761769 2.83308 255 255 255
-0.824312 0.0616155 2.28601 255 255 255
-0.814659 0.639342 3.39902 255 255 255
0.790079 -0.512455 2.69569 255 255 255
0.187609 0.795626 2.86994 255 255 255
0.525332 -0.832471 3.84696 255 255 255
-0.995834 -0.737397 2.41796 255 255 255
0.967611 -0.28363 2.11315 255 255 255
-0.336804 0.93352 3.74935 255 255 255
-0.50127 -0.60906 2.77392 255 255 255
0.453866 -0.271208 3.02079 255 255 255
-0.342825 0.0913736 3.37031 255 255 255
0.548939 0.34916 2.61771 255 255 255
-0.0761064 0.378987 2.69467 255 255 255
0.651542 0.236598 2.28894 255 255 255
0.278722 -0.940865 2.22119 255 255 255
0.407216 -0.982859 2.39977 255 255 255
-0.321138 -0.358784 3.13048 255 255 255
-0.942282 0.227194 3.22526 255 255 255
-0.349614 0.551983 3.19973 255 255 255
-0.568274 0.256166 3.86413 255 255 255
0.961319 -0.037107 3.24124 255 255 255
-0.857585 -0.58072 2.97473 255 255 255
0.119171 0.773568 2.50522 255 255 255
-0.692441 0.176341 3.95765 255 255 255
0.312281 -0.452606 3.19126 255 255 255
-0.599492 0.161631 3.70983 255 255 255
0.975257 0.66514 3.86952 255 255 255
-0.771986 -0.942792 3.35894 255 255 255
0.1389 -0.290803 3.06123 255 255 255
0.0316357 0.528764 3.7243 255 255 255
-0.0301756 0.105683 2.08624 255 255 255
-0.870107 -0.277316 3.2741 255 255 255
0.584789 0.900684 2.26935 255 255 255
-0.171378 0.77282 3.38018 255 255 255
0.0667592 0.901002 3.12543 255 255 255
0.715663 0.0937179 2.93629 255 255 255
0.410867 0.903262 2.4064 255 255 255
-0.102889 0.487466 3.97975 255 255 255
0.837446 0.259817 2.3865 255 255 255
-0.185704 -0.783567 3.15686 255 255 255
0.770331 -0.276849 2.37447 255 255 255
-0.609666 0.935921 2.0511 255 255 255
-0.124197 0.518003 3.44125 255 255 255
0.469232 -0.478091 3.13226 255 255 255
0.111589 -0.446165 2.49837 255 255 255
0.549209 -0.736108 2.22901 255 255 255
-0.928474 0.360846 2.68998 255 255 255
-0.923587 0.0333831 2.82888 255 255 255
0.390106 0.358173 2.03525 255 255 255
-0.195698 -0.674511 2.32862 255 255 255
-0.191474 -0.85685 3.08608 255 255 255
0.791596 -0.86164 3.41743 255 255 255
0.792455 -0.662596 2.6084 255 255 255
-0.865327 0.245172 3.85551 255 255 255
0.944711 -0.42816 3.3949 255 255 255
0.0955187 -0.316964 2.13199 255 255 255
-0.761816 0.512167 2.33718 255 255 255
0.230633 0.786202 2.93558 255 255 255
-0.663632 -0.457792 2.03581 255 255 255
0.26129 -0.343159 2.37519 255 255 255
-0.354971 -0.974306 2.93274 255 255 255
-0.0241583 -0.554526 2.16548 255 255 255
0.911197 0.331726 3.94543 255 255 255
0.637417 0.507125 2.89517 255 255 255
0.476585 -0.0397068 2.26414 255 255 255
-0.898519 -0.738489 3.22001 255 255 255
0.687531 -0.985629 3.87277 255 255 255
-0.987769 0.238593 3.30559 255 255 255
-0.689384 0.722784 3.98347 255 255 255
-0.186919 -0.1274 2.64277 255 255 255
-0.728466 -0.17414 2.52076 255 255 255
-0.0811609 0.547611 3.57366 255 255 255
-0.234526 0.41285 2.13965 255 255 255
-0.452591 0.681123 3.9478 255 255 255
-0.786646 0.699987 2.21642 255 255 255
0.11537 0.0487409 3.76665 255 255 255
0.195419 0.459122 3.17435 255 255 255
0.670137 0.0162063 3.98781 255 255 255
-0.965198 0.63468 3.03944 255 255 255
0.326417 -0.621087 3.62634 255 255 255
-0.516374 -0.649596 3.45229 255 255 255
0.877014 0.181953 3.45169 255 255 255
0.626323 0.62117 2.71863 255 255 255
-0.0275421 0.465759 3.44058 255 255 255
0.938252 -0.225222 3.98505 255 255 255
0.968135 -0.198763 3.57049 255 255 255
0.41299 -0.0714692 2.73897 255 255 255
-0.432898 0.606212 2.31118 255 255 255
0.0916291 -0.807193 3.20789 255 255 255
-0.861655 -0.857039 3.43103 255 255 255
0.34348 0.675686 2.54988 255 255 255
-0.529011 -0.490903 2.52993 255 255 255
0.899971 0.940879 2.11603 255 255 255
0.953283 -0.681762 3.52919 255 255 255
0.817429 -0.0112096 3.87686 255 255 255
-0.00289706 -0.544335 3.26009 255 255 255
0.14838 0.840622 2.8653 255 255 255
-0.811875 -0.0494435 2.17995 255 255 255
0.640533 0.114989 3.7248 255 255 255
-0.096386 -0.906407 3.56404 255 255 255
-0.635123 -0.660843 3.13189 255 255 255
0.98117 0.0345192 2.34214 255 255 255
0.0855416 -0.0990483 2.34328 255 255 255
-0.327944 -0.154361 2.61998 255 255 255
-0.0278971 -0.0810275 2.98974 255 255 255
0.212361 -0.935681 2.67095 255 255 255
-0.154231 0.67046 3.5916 255 255 255
-0.419362 0.602469 3.20538 255 255 255
-0.57109 0.540019 3.25613 255 255 255
0.945029 -0.0910211 2.19046 255 255 255
0.266553 -0.34252 3.95422 255 255 255
-0.505416 0.847497 3.31397 255 255 255
-0.609381 0.616046 3.43337 255 255 255
-0.99351 -0.0311234 3.84135 255 255 255
-0.465895 0.962793 2.6872 255 255 255
-0.385534 -0.835889 2.7898 255 255 255
-0.787803 -0.403807 3.63903 255 255 255
0.357063 0.0729994 2.29048 255 255 255
0.0917563 -0.324509 3.79932 255 255 255
-0.288673 -0.527786 3.77988 255 255 255
0.530851 0.811244 2.84155 255 255 255
-0.88782 -0.407873 3.53935 255 255 255
-0.574359 0.475356 3.29473 255 255 255
0.546568 0.35754 2.63922 255 255 255
0.162978 0.0019713 3.04955 255 255 255
0.620298 0.931352 2.05757 255 255 255
0.405006 -0.635816 3.02962 255 255 255
0.166091 -0.458968 2.62327 255 255 255
-0.575444 -0.196279 2.2466 255 255 255
0.641112 0.312591 3.53921 255 255 255
-0.0630175 0.875747 3.87107 255 255 255
0.432048 0.742601 2.48725 255 255 255
0.609591 0.85305 3.14368 255 255 255
0.121922 -0.26157 3.20455 255 255 255
0.90576 0.443322 2.66675 255 255 255
0.384686 0.0709631 2.79795 255 255 255
0.378821 0.497562 2.87815 255 255 255
-0.531281 0.568826 3.41816 255 255 255
-0.986775 -0.0763881 2.47046 255 255 255
-0.42806 -0.802109 3.71599 255 255 255
-0.839103 0.0275498 2.92093 255 255 255
-0.905606 0.662123 2.48401 255 255 255
-0.462355 0.996916 2.01207 255 255 255
0.68783 0.622536 2.73737 255 255 255
-0.569042 0.412252 3.22739 255 255 255
0.996921 -0.188157 3.89781 255 255 255
0.904305 0.865086 3.84323 255 255 255
-0.168441 0.375271 3.36835 255 255 255
-0.342609 0.0189009 2.60019 255 255 255
-0.575733 0.608148 2.85276 255 255 255
-0.478081 0.752019 2.31555 255 255 255
-0.399163 -0.42582 3.95133 255 255 255
0.8155 0.794054 2.16422 255 255 255
-0.838496 0.295074 2.51419 255 255 255
-0.797795 0.114104 3.29953 255 255 255
-0.441332 0.287685 2.80665 255 255 255
-0.0395432 -0.691751 2.0507 255 255 255
0.700733 -0.432181 2.80725 255 255 255
0.360248 0.913169 2.74001 255 255 255
0.565824 -0.122928 2.54395 255 255 255
0.919985 -0.509296 2.5974 255 255 255
-0.796844 -0.674622 2.61306 255 255 255
0.267058 -0.0621063 3.9332 255 255 255
0.519246 -0.836904 3.59804 255 255 255
0.689104 0.603362 3.14998 255 255 255
0.542773 -0.611297 3.57272 255 255 255
-0.55501 0.318492 3.26301 255 255 255
-0.576564 -0.160591 3.43807 255 255 255
-0.958497 -0.567036 2.40401 255 255 255
0.912442 -0.618677 2.04491 255 255 255
