ply
format ascii 1.0
element vertex 504
property float x
property float y
property float z
property uchar red
property uchar green
property uchar blue
end_header
-0 -0 -0 0 0 255
-1.31709 -0.367493 0.19061 0 0 255
0.416844 0.202166 0.0215093 0 0 255
-0.834596 -0.645778 0.112626 0 0 255
-0.38001 0.26871 4.21537 255 255 255
-0.591637 0.912874 4.30113 255 255 255
-0.342158 -1.47593 5.96577 255 255 255
0.735593 -0.0176594 5.42073 255 255 255
0.486676 -1.55596 4.03886 255 255 255
0.771777 -0.914637 4.30167 255 255 255
-0.0221712 1.28946 4.40764 255 255 255
-0.834353 1.63092 5.50157 255 255 255
0.913654 1.29631 4.48249 255 255 255
0.873147 -0.978973 4.86996 255 255 255
0.0793214 -1.71875 5.33534 255 255 255
-0.667801 0.211196 4.21643 255 255 255
0.979381 -0.899592 5.18951 255 255 255
-0.0277263 -0.809451 4.75022 255 255 255
-0.897295 1.60562 4.28457 255 255 255
0.765323 -0.411731 4.79405 255 255 255
0.672362 -0.985347 4.02741 255 255 255
0.262841 0.453099 4.96217 255 255 255
0.554415 1.35955 4.23907 255 255 255
-0.921302 0.47449 5.97154 255 255 255
0.0166928 1.95047 4.48049 255 255 255
-0.267446 -0.503484 5.16294 255 255 255
0.171937 1.79978 5.63666 255 255 255
0.777904 1.81331 4.02394 255 255 255
-0.814299 -1.42002 4.39572 255 255 255
0.843589 1.33991 4.58087 255 255 255
-0.0203131 -1.57351 4.40503 255 255 255
-0.447267 -1.7097 4.94197 255 255 255
-0.466451 -1.88567 5.20086 255 255 255
0.715964 -1.48032 5.70215 255 255 255
-0.282676 -1.47867 4.02536 255 255 255
-0.0450339 1.12886 5.7193 255 255 255
-0.597929 -1.48043 4.83767 255 255 255
-0.36175 -0.034549 5.17409 255 255 255
0.25127 0.512353 5.50807 255 255 255
0.308823 -1.82962 4.18582 255 255 255
-0.159762 -1.3233 4.33499 255 255 255
0.252054 -1.79917 4.30183 255 255 255
0.206647 -1.83459 5.73373 255 255 255
0.628971 0.346181 4.53012 255 255 255
0.0621914 0.870658 5.98317 255 255 255
-0.981434 1.2195 5.70491 255 255 255
-0.604405 0.842689 5.50367 255 255 255
0.44843 -0.564577 5.03083 255 255 255
-0.543896 -0.545153 4.12574 255 255 255
-0.115794 -0.146686 5.68758 255 255 255
-0.766066 -1.61354 4.06684 255 255 255
0.342094 -0.115241 5.65747 255 255 255
0.793884 0.176467 5.88625 255 255 255
0.777365 -0.547003 5.71213 255 255 255
-0.844646 -0.806143 4.50325 255 255 255
-0.699981 1.39648 4.87114 255 255 255
-0.397011 -0.0416496 4.36031 255 255 255
0.429002 1.23764 5.08835 255 255 255
-0.700046 -1.5582 4.08524 255 255 255
0.588671 -1.44128 4.39489 255 255 255
-0.230169 -1.15538 5.55744 255 255 255
0.0589034 0.784312 4.17369 255 255 255
0.419323 0.163242 5.61745 255 255 255
0.866409 -0.606345 4.28188 255 255 255
0.749609 -1.40484 4.68525 255 255 255
-0.996307 0.318655 5.22985 255 255 255
-0.244355 1.71841 5.41117 255 255 255
-0.0720355 -0.604518 4.14541 255 255 255
-0.393605 0.143639 5.23911 255 255 255
0.294164 -0.453846 4.2456 255 255 255
-0.213051 -0.157463 5.79442 255 255 255
-0.964193 0.476083 4.45393 255 255 255
-0.489236 0.190685 4.43009 255 255 255
0.198455 -1.5057 4.70732 255 255 255
-0.614418 -1.14082 4.50386 255 255 255
0.266269 0.391902 4.34271 255 255 255
0.655411 0.497105 4.06314 255 255 255
0.841685 0.412585 5.32586 255 255 255
0.907269 0.121841 5.21377 255 255 255
-0.654629 1.76814 4.77878 255 255 255
-0.729331 1.56303 4.38374 255 255 255
0.438476 -1.00477 4.84503 255 255 255
0.732139 -1.10272 4.74686 255 255 255
-0.975379 -0.744637 5.67024 255 255 255
0.587582 1.17528 5.0528 255 255 255
0.554152 -0.584921 5.34956 255 255 255
0.534371 -0.481221 4.68938 255 255 255
0.919968 1.9863 5.74497 255 255 255
0.276144 0.151542 5.09307 255 255 255
-0.884888 1.80348 5.92297 255 255 255
-0.26405 1.64452 5.06738 255 255 255
-0.722732 0.589039 5.14769 255 255 255
-0.737023 1.18779 5.40184 255 255 255
-0.526667 1.07372 5.52876 255 255 255
0.901733 -0.803284 5.74466 255 255 255
-0.815453 -0.995568 5.83503 255 255 255
0.640225 -0.270018 4.8897 255 255 255
-0.803397 -1.81077 4.15752 255 255 255
-0.948565 -0.848211 5.95509 255 255 255
0.423119 -1.91195 5.0367 255 255 255
0.180554 -1.89344 5.30518 255 255 255
-0.389237 -0.109133 4.75789 255 255 255
-0.935915 1.85989 4.68414 255 255 255
-0.360166 1.15965 5.3626 255 255 255
0.0332667 -0.833713 5.54892 255 255 255
-0.127072 -0.137041 5.47093 255 255 255
-0.92899 -0.884345 5.72157 255 255 255
0.418432 -1.75525 5.38486 255 255 255
-0.110722 -0.0323825 4.49308 255 255 255
0.756768 -0.775994 4.23625 255 255 255
-0.276662 1.10979 4.91865 255 255 255
-0.029593 1.60803 5.42355 255 255 255
-0.853104 -1.8973 5.60421 255 255 255
-0.554986 0.0864001 4.93199 255 255 255
-0.408799 0.103688 5.12273 255 255 255
-0.185374 0.161738 5.35959 255 255 255
-0.401001 -1.50891 4.89661 255 255 255
0.50438 0.168838 5.58087 255 255 255
0.0567722 0.122384 4.778 255 255 255
-0.500507 -0.819023 5.12492 255 255 255
0.426923 -1.53487 4.56332 255 255 255
0.879113 -0.870312 4.084 255 255 255
-0.694752 -1.81646 4.10594 255 255 255
0.620917 -1.48574 5.78331 255 255 255
-0.528016 -0.509226 4.37309 255 255 255
0.0793468 1.58907 4.02359 255 255 255
0.481116 -1.07967 4.55428 255 255 255
-0.413366 1.08227 5.23344 255 255 255
0.414693 0.0963409 4.69092 255 255 255
-0.0193998 1.83813 5.6822 255 255 255
0.144711 -0.809373 5.84435 255 255 255
0.157735 1.43818 4.88556 255 255 255
-0.14632 1.74168 5.66258 255 255 255
-0.479091 1.95621 4.138 255 255 255
-0.851352 -1.68658 5.50415 255 255 255
0.880666 -0.689785 5.61543 255 255 255
-0.849588 -0.0377141 5.5725 255 255 255
0.157419 1.09367 4.72755 255 255 255
0.909832 -1.69028 5.26907 255 255 255
0.632922 1.03068 4.60189 255 255 255
-0.842804 0.453718 4.76739 255 255 255
0.62604 0.204569 5.57194 255 255 255
-0.944749 0.591353 5.81194 255 255 255
-0.926238 -1.94899 5.60075 255 255 255
0.788012 1.41253 4.48279 255 255 255
-0.497812 0.00106911 5.05584 255 255 255
0.860384 -1.20159 5.11 255 255 255
0.697429 1.306 4.54393 255 255 255
-0.0447434 -0.980882 4.68511 255 255 255
0.523453 1.2808 4.46472 255 255 255
0.83522 -0.935015 4.30859 255 255 255
-0.101229 1.32492 5.48096 255 255 255
0.257021 -0.415568 4.7317 255 255 255
-0.539445 0.513678 5.67706 255 255 255
0.904118 0.672602 5.16985 255 255 255
0.67689 0.355523 5.73265 255 255 255
0.0672335 -0.0648165 5.19718 255 255 255
0.626896 -1.53324 5.08418 255 255 255
0.526098 -1.01023 4.6426 255 255 255
-0.267395 1.08934 5.79175 255 255 255
0.102613 1.18078 4.31206 255 255 255
-0.630017 -0.71379 5.34847 255 255 255
0.85913 -0.363615 4.55821 255 255 255
-0.670921 -0.594222 5.08742 255 255 255
0.427135 -0.722699 4.27264 255 255 255
-0.646817 1.28744 5.77653 255 255 255
0.0461149 -0.302073 5.99551 255 255 255
-0.28059 -1.44949 4.005 255 255 255
0.870153 1.0953 5.88468 255 255 255
0.685544 1.89293 4.42937 255 255 255
-0.855678 1.03708 4.6142 255 255 255
0.273258 0.459784 5.94214 255 255 255
-0.544428 -1.31223 4.63353 255 255 255
0.642359 0.983311 5.39975 255 255 255
0.31776 -1.73045 5.86555 255 255 255
-0.282385 -1.52544 4.54944 255 255 255
-0.575004 0.862781 5.96311 255 255 255
-0.274589 0.311458 5.93147 255 255 255
0.211037 0.517315 5.04463 255 255 255
-0.470137 -1.79309 5.62863 255 255 255
0.426313 -0.863595 5.95886 255 255 255
-0.291027 -1.34997 5.54839 255 255 255
-0.740332 0.835127 5.40427 255 255 255
0.744112 1.97508 4.27923 255 255 255
-0.717403 0.256372 5.16838 255 255 255
0.632815 -0.100181 5.58717 255 255 255
0.708676 1.26927 5.8122 255 255 255
0.505609 -0.867224 5.92192 255 255 255
0.930457 -0.996722 4.68596 255 255 255
0.274612 1.14595 4.41247 255 255 255
0.461959 0.234039 4.88597 255 255 255
-0.463684 -1.16525 5.44627 255 255 255
-0.14713 0.360097 4.31938 255 255 255
0.473206 -1.95922 5.57855 255 255 255
0.443445 1.00938 4.4419 255 255 255
0.791974 0.819276 5.04313 255 255 255
-0.510418 -0.00983474 4.1692 255 255 255
0.688847 -1.60706 5.02369 255 255 255
0.0851345 -1.11107 5.13401 255 255 255
0.532606 -1.90586 4.86877 255 255 255
0.900614 1.38991 4.22609 255 255 255
-0.304436 -0.275029 5.67994 255 255 255
-0.291597 -1.02563 5.22001 255 255 255
-0.15429 1.1611 4.63573 255 255 255
0.343803 1.55367 5.28643 255 255 255
0.029026 1.30391 4.88437 255 255 255
0.939971 0.58252 4.11976 255 255 255
-0.356552 -0.271146 5.40528 255 255 255
-0.94528 0.884455 5.48125 255 255 255
0.929805 -0.468503 5.50231 255 255 255
-0.594355 -1.9853 4.90561 255 255 255
-0.452714 0.404871 4.79257 255 255 255
0.585142 0.931586 5.81302 255 255 255
-0.108874 0.767937 5.85176 255 255 255
-0.902149 -1.99156 4.03946 255 255 255
-0.14618 1.2522 5.02513 255 255 255
0.260741 0.926802 5.49003 255 255 255
0.00190275 1.43117 5.77817 255 255 255
0.224459 1.19428 4.49138 255 255 255
-0.650066 -1.86527 4.57002 255 255 255
0.407173 -0.957301 5.41658 255 255 255
-0.280102 1.08305 5.7961 255 255 255
-0.477696 -0.806529 5.64213 255 255 255
0.407888 -0.727766 5.94528 255 255 255
-0.534925 -1.87545 5.98216 255 255 255
-0.174421 1.71768 4.17104 255 255 255
-0.425147 0.0220843 5.99334 255 255 255
-0.702511 1.48655 4.18491 255 255 255
-0.712243 0.903268 4.23269 255 255 255
-0.852169 1.63197 4.0073 255 255 255
0.779679 1.35332 4.31781 255 255 255
-0.597464 -1.01266 5.61999 255 255 255
0.984054 0.324219 4.58424 255 255 255
0.765534 0.778964 4.07962 255 255 255
0.943246 1.5407 5.24651 255 255 255
-0.590485 1.36004 5.77425 255 255 255
0.336275 -1.93345 4.18674 255 255 255
0.797234 -1.17359 4.21347 255 255 255
0.0094563 -1.30459 4.70468 255 255 255
-0.480399 -1.42166 4.09755 255 255 255
0.863701 -0.701532 5.67791 255 255 255
0.331024 -0.574334 5.34192 255 255 255
-0.430868 0.932672 4.18428 255 255 255
-0.902194 -0.285472 5.11416 255 255 255
0.129688 -1.06812 5.74926 255 255 255
0.225133 -1.8085 4.63821 255 255 255
-0.788303 0.129452 4.7276 255 255 255
0.324699 0.303252 5.86304 255 255 255
-0.724561 -1.93592 4.56811 255 255 255
-0.150314 1.92843 4.98039 255 255 255
-0.412082 -1.16683 5.30819 255 255 255
0.240895 1.06266 4.10661 255 255 255
-0.634803 -1.18069 5.84073 255 255 255
0.939081 -1.61185 5.80701 255 255 255
0.0216399 -1.13328 4.60575 255 255 255
0.214465 1.24045 4.21379 255 255 255
0.564541 -1.82551 5.06475 255 255 255
-0.639736 -1.15812 4.55936 255 255 255
0.975966 -0.823489 4.67207 255 255 255
-0.575497 -1.76583 4.68911 255 255 255
-0.17255 0.66716 5.34164 255 255 255
-0.425341 0.841547 4.27523 255 255 255
0.789118 0.904387 4.75191 255 255 255
-0.173529 1.25832 5.98934 255 255 255
0.754288 1.67327 5.20188 255 255 255
-0.835192 1.38867 4.65457 255 255 255
0.69443 0.620458 5.93158 255 255 255
-0.699364 -0.522483 4.4757 255 255 255
-0.546363 1.82741 5.75805 255 255 255
0.527769 0.333072 5.00681 255 255 255
-0.949365 1.54948 5.56803 255 255 255
0.216009 -0.0487747 5.61383 255 255 255
-0.828909 0.491823 5.30223 255 255 255
-0.224318 -0.495805 4.30317 255 255 255
0.703913 -0.55431 4.88196 255 255 255
-0.415575 1.00625 4.26663 255 255 255
-0.543944 0.848679 4.52342 255 255 255
-0.366645 -0.513969 4.71461 255 255 255
-0.674952 -1.66903 5.76517 255 255 255
-0.656361 -1.19373 5.68309 255 255 255
0.717481 1.39657 4.6387 255 255 255
0.531916 -1.3864 4.27137 255 255 255
0.524035 0.0200766 5.58631 255 255 255
0.251713 0.541342 5.14161 255 255 255
0.977123 -1.51494 4.24396 255 255 255
-0.204211 0.371207 5.0561 255 255 255
-0.718474 -0.596746 5.21364 255 255 255
0.396196 -1.438 4.60036 255 255 255
0.958627 1.54271 4.81666 255 255 255
-0.0589424 -0.469282 4.95808 255 255 255
-0.457166 0.442719 5.6118 255 255 255
-0.494216 -0.125244 5.48314 255 255 255
0.309754 -0.227054 4.52111 255 255 255
0.456106 1.65522 4.81211 255 255 255
-0.0116869 1.7378 4.3657 255 255 255
-0.627409 1.1935 4.01263 255 255 255
-0.23409 1.40294 5.60586 255 255 255
-0.51084 -0.538696 5.98261 255 255 255
-0.94898 -1.80625 5.67921 255 255 255
-0.536526 0.715909 4.47595 255 255 255
0.620452 1.35387 5.12661 255 255 255
-0.698429 -1.14552 4.02377 255 255 255
0.0035756 0.330909 4.17532 255 255 255
-0.162214 -1.54651 4.91297 255 255 255
0.12404 1.10669 4.64056 255 255 255
0.129851 -1.99405 5.62184 255 255 255
-0.421239 1.87526 5.71042 255 255 255
-0.952802 -0.302717 5.55217 255 255 255
0.0386087 -0.654766 5.95463 255 255 255
0.234185 -1.3727 4.59785 255 255 255
0.819655 0.0869721 4.98335 255 255 255
-0.275325 1.75742 4.55704 255 255 255
-0.178197 -0.943121 5.25075 255 255 255
-0.898141 1.57913 5.75819 255 255 255
0.100995 -0.0493466 5.26145 255 255 255
-0.320783 -0.660541 4.21857 255 255 255
-0.718029 -0.328194 5.39723 255 255 255
0.241113 -1.8144 4.40691 255 255 255
0.577436 -0.862748 4.94743 255 255 255
-0.716568 1.45222 5.6639 255 255 255
-0.280032 -1.79166 5.18371 255 255 255
-0.542939 -1.90259 4.13084 255 255 255
0.732763 -1.74234 5.49463 255 255 255
0.297542 -1.60375 4.53002 255 255 255
-0.0664475 1.63437 4.88125 255 255 255
0.111433 -1.83593 4.41038 255 255 255
0.590075 0.955276 4.22582 255 255 255
0.122746 0.129383 5.24237 255 255 255
-0.421226 -0.996187 4.06118 255 255 255
-0.736061 1.36087 5.41211 255 255 255
0.451398 0.778648 4.85622 255 255 255
-0.961107 0.549078 5.35444 255 255 255
0.378252 -1.7636 5.75106 255 255 255
-0.516331 0.628698 5.45733 255 255 255
-0.860226 -0.625828 5.88465 255 255 255
-0.673927 0.567351 5.55186 255 255 255
0.0590916 0.368694 4.51086 255 255 255
0.0998927 -0.345371 5.62451 255 255 255
0.806371 1.8632 5.67444 255 255 255
0.467911 -0.767559 4.78467 255 255 255
0.515093 -1.01164 5.90062 255 255 255
-0.696722 -0.528865 4.23042 255 255 255
-0.679543 -1.50202 4.5068 255 255 255
-0.694942 -0.187383 5.88633 255 255 255
-0.922923 1.27584 4.979 255 255 255
0.478693 -0.988863 5.64129 255 255 255
-0.574609 1.7516 4.05333 255 255 255
-0.664701 0.0207984 5.45142 255 255 255
-0.20317 0.520854 5.45766 255 255 255
0.0459418 0.633995 5.26559 255 255 255
0.172049 1.31487 4.76163 255 255 255
-0.868893 0.924287 4.20996 255 255 255
0.386869 -1.09349 5.9103 255 255 255
0.389639 -1.81563 4.12609 255 255 255
-0.525028 1.64258 4.68301 255 255 255
0.996626 0.0365632 4.51919 255 255 255
0.0924139 1.92546 5.01809 255 255 255
-0.797733 1.06808 5.5893 255 255 255
-0.0217693 1.52393 4.97685 255 255 255
-0.529663 0.168473 5.57349 255 255 255
-0.984896 -0.357152 4.438 255 255 255
-0.909757 -0.655806 4.23235 255 255 255
-0.755621 -1.64653 5.91356 255 255 255
-0.281657 0.535057 4.04784 255 255 255
0.447386 -0.315621 5.74134 255 255 255
-0.559407 -1.97872 5.38757 255 255 255
0.148217 -0.729635 5.63935 255 255 255
0.760087 1.97579 5.79055 255 255 255
0.959525 -0.920159 5.34737 255 255 255
-0.335525 1.36499 4.56141 255 255 255
-0.0280385 0.287923 4.56759 255 255 255
0.326776 0.341544 5.74772 255 255 255
-0.420066 -1.37715 5.47913 255 255 255
-0.549677 1.88919 5.84062 255 255 255
0.516919 -0.767123 5.75823 255 255 255
-0.364714 1.98844 5.60556 255 255 255
-0.684585 1.36105 4.79889 255 255 255
0.554363 0.45316 5.66165 255 255 255
-0.66581 -1.90524 5.59132 255 255 255
-0.749455 0.723994 4.15972 255 255 255
-0.52963 -1.84877 5.1762 255 255 255
0.704043 1.18782 5.21047 255 255 255
0.853154 0.422815 5.08369 255 255 255
0.161528 -0.841827 4.72814 255 255 255
-0.703873 0.00888812 5.93521 255 255 255
0.637824 0.967176 5.45116 255 255 255
-0.656033 0.52712 4.32357 255 255 255
0.411549 1.23929 5.19202 255 255 255
0.175995 -1.40805 4.016 255 255 255
-0.522656 0.689898 5.77434 255 255 255
0.788094 0.87724 4.27115 255 255 255
0.968904 -0.806783 5.09422 255 255 255
-0.72692 1.12518 4.48036 255 255 255
-0.0979883 0.46766 5.91078 255 255 255
0.687911 1.23061 4.30455 255 255 255
-0.750186 1.6319 5.54397 255 255 255
-0.648372 0.048213 4.39322 255 255 255
-0.693434 1.17931 4.10685 255 255 255
-0.598274 1.91353 5.39852 255 255 255
0.272109 -0.874623 4.15178 255 255 255
0.682008 -1.45049 5.99559 255 255 255
0.0225851 0.294694 4.0749 255 255 255
0.960065 -0.200468 4.98113 255 255 255
-0.768395 -1.82317 5.99265 255 255 255
-0.833399 1.34606 5.43012 255 255 255
-0.501975 -0.136603 5.72982 255 255 255
0.544414 0.360519 5.67289 255 255 255
0.010795 -0.887746 5.16585 255 255 255
-0.972181 -0.290699 4.94095 255 255 255
-0.112093 -0.697252 5.0149 255 255 255
0.773091 0.935566 5.19629 255 255 255
-0.971549 1.01163 4.53423 255 255 255
0.967425 -1.72815 5.68642 255 255 255
0.985818 -1.68865 5.16411 255 255 255
-0.731353 0.128111 4.30026 255 255 255
0.548147 0.310349 4.7378 255 255 255
-0.901591 -0.626926 4.20502 255 255 255
0.762926 -1.2894 5.46607 255 255 255
0.758804 0.948793 5.7496 255 255 255
-0.4282 -0.660367 4.98981 255 255 255
-0.857924 1.00303 5.52707 255 255 255
0.579076 -1.31127 4.87169 255 255 255
0.114239 -0.520147 5.61487 255 255 255
-0.825759 1.89614 4.57784 255 255 255
0.8496 0.885576 5.64883 255 255 255
0.211301 -1.08615 5.10371 255 255 255
-0.0764797 -0.168251 5.69403 255 255 255
0.0547748 1.62841 5.41096 255 255 255
0.773084 -0.862483 5.5483 255 255 255
0.329933 -1.31559 5.86207 255 255 255
-0.419048 -1.21417 4.63384 255 255 255
0.0343256 -1.8904 4.88652 255 255 255
0.399386 -0.190428 5.40069 255 255 255
-0.589431 0.69502 4.36396 255 255 255
-0.621848 0.0567337 5.19877 255 255 255
-0.582853 -0.823846 4.7733 255 255 255
0.0216322 0.614126 5.95938 255 255 255
0.494632 0.869609 4.71418 255 255 255
-0.309475 -0.688568 5.63611 255 255 255
0.911056 -0.0145305 4.36291 255 255 255
0.490211 1.30021 4.95812 255 255 255
-0.831914 1.44546 4.53792 255 255 255
0.936857 0.251021 4.00814 255 255 255
-0.0603612 -0.577289 4.909 255 255 255
0.910301 1.3538 4.51632 255 255 255
-0.356744 -1.44613 5.39939 255 255 255
-0.167773 -0.582938 5.82322 255 255 255
0.943481 -0.454292 4.57961 255 255 255
-0.795091 -1.27294 5.31179 255 255 255
-0.362501 -0.300837 4.75454 255 255 255
-0.0968989 1.53211 5.8182 255 255 255
-0.597023 -1.60069 5.06718 255 255 255
0.680289 1.02656 4.67603 255 255 255
-0.139669 1.33962 4.46344 255 255 255
0.24976 0.84244 4.2523 255 255 255
0.545558 0.956281 5.14115 255 255 255
0.722403 -1.63279 4.70823 255 255 255
-0.307249 -1.81982 5.79131 255 255 255
0.468692 0.420631 4.92602 255 255 255
0.334858 -0.735603 5.13096 255 255 255
-0.0377355 -1.63589 5.18414 255 255 255
-0.388 0.536428 5.14837 255 255 255
0.598264 -0.498912 5.64826 255 255 255
-0.35422 1.17603 5.20856 255 255 255
0.281532 -0.289988 5.2232 255 255 255
-0.881515 0.808866 4.04175 255 255 255
-0.732612 -1.76029 4.85577 255 255 255
-0.0260626 0.0766999 5.66411 255 255 255
-0.379549 0.147405 5.37144 255 255 255
-0.579982 1.85406 5.7466 255 255 255
0.502916 -1.08399 5.5932 255 255 255
0.132224 -1.94397 5.2209 255 255 255
-0.0984356 -1.16457 5.69934 255 255 255
-0.650894 1.32073 5.20096 255 255 255
-0.387857 1.8188 5.77349 255 255 255
-0.452492 0.11107 4.57102 255 255 255
0.241759 1.46485 4.35965 255 255 255
0.123653 -0.75603 4.22114 255 255 255
-0.0497441 1.07353 4.92142 255 255 255
0.997684 1.73892 4.3202 255 255 255
0.88419 -0.44858 4.92836 255 255 255
-0.213152 -1.68365 5.26098 255 255 255
-0.0500665 1.48898 5.60339 255 255 255
-0.567866 1.03548 4.32781 255 255 255
0.764363 1.33329 5.45459 255 255 255
0.957391 0.644024 4.4585 255 255 255
-0.585692 -0.871866 5.5331 255 255 255
-0.343309 -0.678992 5.89843 255 255 255
0.0511258 -1.47257 5.98365 255 255 255
-0.0359281 0.763271 5.31926 255 255 255
-0.89854 0.847187 4.0791 255 255 255
0.934886 -0.552698 4.42038 255 255 255
0.621919 0.111262 4.79146 255 255 255
0.986259 -1.26633 4.88675 255 255 255
0.622528 -0.580306 5.88566 255 255 255
0.698872 0.459942 4.77545 255 255 255
0.634282 1.44964 5.80845 255 255 255
-0.814386 -0.370553 5.26302 255 255 255
0.600106 -1.35734 4.94556 255 255 255
-0.00912079 1.82754 5.40119 255 255 255
-0.771601 -0.89114 5.75967 255 255 255
-0.911348 1.93336 5.27443 255 255 255
-0.89551 -1.58609 5.28195 255 255 255
0.946238 -0.431737 5.93835 255 255 255
