ply
format ascii 1.0
element vertex 504
property float x
property float y
property float z
property uchar red
property uchar green
property uchar blue
end_header
-0 -0 -0 0 0 255
-0.93321 -0.234634 0.093467 0 0 255
-0.609827 -0.401801 0.0536208 0 0 255
-0.553634 -0.739881 0.0861354 0 0 255
-0.488455 -0.750942 5.18764 255 255 255
0.235432 -1.6365 5.61222 255 255 255
0.337676 0.548346 5.86659 255 255 255
0.455041 -1.0971 4.58802 255 255 255
-0.0864942 -0.952046 5.22047 255 255 255
0.00362664 1.30981 4.51245 255 255 255
-0.382897 -1.40355 4.11349 255 255 255
-0.00639821 0.78272 4.121 255 255 255
-0.0674941 -1.50154 5.13699 255 255 255
-0.0688206 -1.6453 4.33159 255 255 255
-0.960423 -1.88564 5.12986 255 255 255
-0.516232 -0.268897 4.49088 255 255 255
0.444078 -1.82305 5.93592 255 255 255
-0.749378 1.76234 4.97935 255 255 255
0.195228 -1.33425 4.42054 255 255 255
0.00176726 -0.951789 5.53127 255 255 255
-0.675727 1.11981 4.64527 255 255 255
0.359712 1.20247 5.82862 255 255 255
-0.974253 0.833868 4.65846 255 255 255
0.24828 1.99956 4.39303 255 255 255
0.142906 -0.943274 5.40167 255 255 255
-0.546102 -0.0314826 4.03771 255 255 255
-0.160684 0.318243 5.79611 255 255 255
0.445229 -1.03899 4.37935 255 255 255
-0.836156 -0.532247 5.18368 255 255 255
0.434441 1.09119 5.23864 255 255 255
0.313916 -0.652654 4.88288 255 255 255
0.546496 -0.775682 5.84141 255 255 255
-0.69498 -0.549344 4.77667 255 255 255
0.868274 -0.0142819 4.99615 255 255 255
0.762231 -0.0316432 4.94444 255 255 255
-0.100504 0.268408 5.83788 255 255 255
-0.535328 -1.93535 4.22288 255 255 255
-0.397743 1.3599 4.22831 255 255 255
0.641202 -1.53481 4.05019 255 255 255
-0.963813 0.0935628 4.5841 255 255 255
-0.855166 -0.105705 5.53859 255 255 255
0.593443 0.388398 4.05675 255 255 255
0.319313 -1.79491 5.11163 255 255 255
-0.395048 0.245353 5.70854 255 255 255
-0.744939 1.59242 4.03988 255 255 255
0.243553 -0.156664 5.03467 255 255 255
-0.193427 -1.00434 4.9584 255 255 255
-0.704996 1.26694 4.56123 255 255 255
-0.117419 1.57209 5.16538 255 255 255
0.584218 -0.607511 4.72162 255 255 255
0.71162 -0.442079 4.42012 255 255 255
-0.489503 -1.26464 5.82233 255 255 255
0.927583 1.05202 5.76996 255 255 255
-0.468485 1.63044 4.7371 255 255 255
-0.377701 1.98113 5.87453 255 255 255
-0.157634 0.652557 4.1889 255 255 255
-0.413011 -0.833859 4.11769 255 255 255
-0.454187 1.9591 4.8747 255 255 255
0.266829 -0.000245026 5.62256 255 255 255
0.182215 0.638142 4.01947 255 255 255
-0.533319 1.0107 4.96041 255 255 255
-0.594416 0.709651 5.61606 255 255 255
0.871961 -1.38008 5.64757 255 255 255
-0.445998 1.78513 5.11581 255 255 255
-0.794525 0.15742 5.13166 255 255 255
0.859082 -0.795729 5.3 255 255 255
0.852479 1.3266 5.42266 255 255 255
0.136559 -1.88294 5.49677 255 255 255
-0.0999304 0.718385 4.01507 255 255 255
0.82847 1.48246 4.99027 255 255 255
-0.245229 1.65053 5.72786 255 255 255
-0.877403 -1.00553 4.64887 255 255 255
-0.267942 0.204658 4.89397 255 255 255
-0.648676 -0.426937 5.05835 255 255 255
-0.72205 -0.738229 4.33534 255 255 255
-0.606057 -1.30843 4.12679 255 255 255
0.107377 -0.953707 5.26878 255 255 255
-0.408308 -0.399084 4.33688 255 255 255
0.184826 0.761213 5.00987 255 255 255
-0.162707 -1.95011 4.44317 255 255 255
0.474161 1.37422 4.37997 255 255 255
-0.627508 -0.167423 5.30366 255 255 255
-0.12418 0.528462 4.17252 255 255 255
0.436038 1.86944 4.58241 255 255 255
-0.741803 0.0303895 4.35435 255 255 255
-0.264445 1.32398 5.33462 255 255 255
0.896043 1.27086 4.05982 255 255 255
-0.428228 -1.69496 5.99659 255 255 255
0.9461 -0.397482 4.68121 255 255 255
-0.142082 1.01073 5.87431 255 255 255
-0.140213 -0.115417 5.72413 255 255 255
0.337948 1.90772 4.6225 255 255 255
-0.869864 1.45068 4.05173 255 255 255
-0.12678 -1.16853 4.21821 255 255 255
-0.586456 1.60433 4.97074 255 255 255
-0.650009 1.74844 4.11977 255 255 255
0.0611919 0.81316 4.13144 255 255 255
0.582899 -0.131024 5.01035 255 255 255
0.0515731 1.86888 5.89572 255 255 255
-0.264846 1.80483 4.64213 255 255 255
-0.116628 -0.919485 5.53078 255 255 255
0.180725 1.35114 5.006 255 255 255
-0.402822 -0.115673 4.74484 255 255 255
0.0875116 1.25673 5.74049 255 255 255
0.823194 1.26659 5.13178 255 255 255
-0.878116 -1.55487 5.8623 255 255 255
0.252082 -1.18714 4.15225 255 255 255
-0.931575 -1.36845 4.45368 255 255 255
-0.380684 0.0216296 4.65883 255 255 255
0.589174 1.63448 5.19027 255 255 255
-0.957001 -1.19111 4.75203 255 255 255
-0.618016 0.61839 4.38416 255 255 255
-0.954246 1.2714 4.41853 255 255 255
0.529906 0.136551 5.35265 255 255 255
0.745714 0.0345191 5.16393 255 255 255
0.465447 1.56242 5.85094 255 255 255
-0.804798 -1.863 5.21725 255 255 255
-0.317886 -0.70302 4.42022 255 255 255
0.442478 -0.644337 5.93745 255 255 255
-0.858181 -0.77543 4.3828 255 255 255
-0.247755 0.027434 5.90222 255 255 255
-0.488762 0.852782 5.65724 255 255 255
-0.486993 -0.624271 4.90846 255 255 255
0.802404 0.461974 4.73422 255 255 255
0.105396 -1.66414 4.21308 255 255 255
0.609206 -1.54814 4.77506 255 255 255
0.100168 0.680703 5.43264 255 255 255
0.017379 1.16369 4.12626 255 255 255
0.982232 -1.36505 5.14575 255 255 255
-0.682756 0.325457 5.3398 255 255 255
-0.708333 -1.47974 5.03941 255 255 255
0.0729822 -0.256546 5.20888 255 255 255
0.94402 -0.706977 5.85956 255 255 255
0.985047 -0.890827 4.6921 255 255 255
-0.697331 1.17657 5.91216 255 255 255
-0.54405 -1.17946 4.82322 255 255 255
0.363884 -0.900035 5.4665 255 255 255
-0.149528 -0.000742638 5.74215 255 255 255
0.0846574 0.109909 4.86909 255 255 255
-0.473805 -1.02315 5.72841 255 255 255
0.00144446 -0.826313 4.25729 255 255 255
-0.580564 0.892175 4.28427 255 255 255
-0.018427 -0.261363 4.33951 255 255 255
0.0382211 -0.671989 4.46437 255 255 255
-0.952564 -0.0660801 5.13855 255 255 255
0.622862 -1.18648 5.85629 255 255 255
0.614433 -0.698283 5.38458 255 255 255
0.238579 1.03674 4.27274 255 255 255
-0.0125015 0.56062 4.5161 255 255 255
-0.898009 0.47011 5.92382 255 255 255
-0.490015 -0.732473 5.7359 255 255 255
-0.695237 -1.74331 4.61818 255 255 255
0.092767 0.531251 4.67335 255 255 255
0.217603 1.66242 4.19575 255 255 255
-0.309437 0.770134 4.61842 255 255 255
0.943526 0.271186 4.26309 255 255 255
0.646754 1.61326 4.90534 255 255 255
0.419918 -0.822527 4.19802 255 255 255
0.00870536 0.343701 4.87294 255 255 255
-0.412179 1.19223 5.54108 255 255 255
-0.164432 -1.69195 5.30228 255 255 255
0.875655 0.960414 4.61077 255 255 255
0.713388 0.330124 4.69548 255 255 255
-0.0468695 -1.46593 5.82158 255 255 255
0.982078 -1.88138 4.32324 255 255 255
0.689844 -1.79776 4.68776 255 255 255
0.796269 0.150865 4.00142 255 255 255
-0.486216 1.13964 4.91163 255 255 255
0.858988 -1.13129 4.43699 255 255 255
-0.592309 -1.51501 5.96779 255 255 255
0.26467 0.910995 5.33447 255 255 255
-0.52635 -1.51222 5.60968 255 255 255
-0.778358 0.329433 5.03593 255 255 255
0.30323 -1.53407 4.9515 255 255 255
0.648705 -1.35755 5.45442 255 255 255
-0.15016 -1.36635 4.67557 255 255 255
-0.281451 -0.514182 5.36708 255 255 255
0.794331 0.879249 5.18273 255 255 255
0.347405 1.75225 5.78968 255 255 255
0.510829 0.530109 4.02443 255 255 255
-0.814679 1.46278 5.39341 255 255 255
0.984084 -0.731511 4.40558 255 255 255
0.369182 -0.486399 5.06319 255 255 255
-0.891375 -0.131075 5.51221 255 255 255
0.601514 -0.511603 4.39361 255 255 255
-0.297465 1.78954 5.00655 255 255 255
0.758617 -0.520512 5.55649 255 255 255
0.787759 0.920187 5.27576 255 255 255
-0.512972 -1.75873 5.79728 255 255 255
0.127794 1.2409 5.77485 255 255 255
-0.203431 1.89787 5.37907 255 255 255
-0.27463 1.60699 4.87447 255 255 255
-0.199175 1.51091 4.42547 255 255 255
-0.0605932 0.186851 4.55811 255 255 255
0.767341 -1.55909 4.1975 255 255 255
0.0264883 -0.923135 5.39283 255 255 255
-0.459721 0.133848 5.24121 255 255 255
-0.619871 -1.70078 4.96436 255 255 255
0.243084 0.33121 4.66418 255 255 255
-0.621751 1.33927 5.9773 255 255 255
-0.98035 -1.52337 4.25759 255 255 255
-0.149805 0.368293 5.66607 255 255 255
0.300308 -0.0419524 5.16447 255 255 255
0.835419 0.0554217 4.55627 255 255 255
-0.743558 0.414317 4.1282 255 255 255
0.952901 1.60512 5.57834 255 255 255
-0.190357 -1.86953 5.40636 255 255 255
0.490574 0.913898 4.98427 255 255 255
-0.954289 1.11407 5.79661 255 255 255
0.0605507 -1.37385 5.83268 255 255 255
-0.471221 -1.00057 5.41815 255 255 255
-0.670672 1.03971 4.69843 255 255 255
0.740934 0.972286 4.31202 255 255 255
0.494108 -1.62621 5.59066 255 255 255
0.916239 1.69886 5.96037 255 255 255
0.364507 1.13393 5.0069 255 255 255
0.415845 -1.99318 5.23697 255 255 255
-0.0306604 0.960057 4.71868 255 255 255
0.314986 1.39869 5.04676 255 255 255
-0.447054 -0.187397 5.68508 255 255 255
0.0205031 -1.96055 4.29023 255 255 255
0.74452 -1.56354 5.96772 255 255 255
-0.785972 0.603679 5.18684 255 255 255
0.792577 1.79636 5.09142 255 255 255
-0.325012 0.713555 4.98779 255 255 255
0.0833289 -0.218805 5.66273 255 255 255
0.337863 -0.674953 4.68334 255 255 255
0.0123982 1.71608 4.31768 255 255 255
0.591321 -0.833349 4.79906 255 255 255
-0.235771 -1.80469 4.95967 255 255 255
0.395023 1.0821 5.72036 255 255 255
0.522873 -1.49506 5.30089 255 255 255
0.222062 -0.859102 4.80294 255 255 255
-0.559373 -1.27798 4.17702 255 255 255
-0.157417 1.61597 5.69734 255 255 255
-0.36798 -0.0899519 5.69611 255 255 255
-0.00925153 1.07131 4.86318 255 255 255
0.23654 -0.0721316 4.99168 255 255 255
0.633174 -0.111384 4.12239 255 255 255
0.409875 0.0531602 4.97413 255 255 255
0.262275 0.921708 5.48915 255 255 255
0.569102 -0.39203 5.03759 255 255 255
-0.146481 -1.33567 5.74339 255 255 255
0.606578 -1.99036 5.19138 255 255 255
-0.104893 0.449771 4.40196 255 255 255
-0.596634 1.18875 4.69165 255 255 255
0.394455 -1.75628 5.30887 255 255 255
0.211504 0.815334 4.73666 255 255 255
0.201975 -0.281105 5.11312 255 255 255
0.768739 0.967039 4.15302 255 255 255
0.401494 1.51224 4.07949 255 255 255
-0.401971 0.0861937 4.75411 255 255 255
-0.688606 -0.62671 4.71593 255 255 255
-0.843647 -0.312964 4.82825 255 255 255
-0.802394 0.0112299 4.90018 255 255 255
-0.164261 -0.844383 4.00905 255 255 255
0.547483 0.537963 4.70079 255 255 255
0.60986 0.97455 4.86258 255 255 255
-0.705412 -0.616644 5.34764 255 255 255
-0.460507 -1.68248 5.59013 255 255 255
0.692603 0.690239 5.34425 255 255 255
0.359353 1.61567 5.28419 255 255 255
-0.76392 1.43858 5.94734 255 255 255
0.602781 -1.32066 5.17435 255 255 255
0.534938 -1.99601 5.29426 255 255 255
0.891515 0.268539 5.14876 255 255 255
0.250976 -1.60944 5.21694 255 255 255
-0.00476586 -1.01699 5.04566 255 255 255
0.425249 0.385892 5.43041 255 255 255
0.735098 1.35661 4.89491 255 255 255
-0.167005 -0.610223 5.47085 255 255 255
0.390862 0.363269 4.50206 255 255 255
0.934176 -0.575934 5.24899 255 255 255
-0.929415 0.159722 4.0321 255 255 255
-0.606084 0.829114 5.85377 255 255 255
0.625409 0.553817 5.35203 255 255 255
0.403034 -0.700953 4.46433 255 255 255
-0.337428 0.383005 4.89316 255 255 255
-0.249284 -1.51614 5.62763 255 255 255
-0.0417172 -1.72632 4.72165 255 255 255
0.469199 0.10216 4.44247 255 255 255
-0.896076 1.10074 4.35065 255 255 255
-0.250626 -1.76393 4.79948 255 255 255
-0.809699 -0.439379 5.21275 255 255 255
0.125021 -0.957182 5.09252 255 255 255
0.0122271 -0.394676 5.56927 255 255 255
0.155826 1.45564 5.26698 255 255 255
0.114461 0.0908849 4.84048 255 255 255
-0.115231 -0.243449 5.65038 255 255 255
0.0532024 1.64246 5.73492 255 255 255
-0.336083 -0.639755 5.87104 255 255 255
0.9498 0.581289 5.22276 255 255 255
0.939227 1.82317 4.56427 255 255 255
0.649776 -0.579404 4.13052 255 255 255
-0.486332 1.72205 4.64795 255 255 255
0.316967 -0.658672 4.99597 255 255 255
-0.317052 -0.292693 4.42143 255 255 255
0.424529 -1.98067 5.13014 255 255 255
0.241037 -1.12171 5.66597 255 255 255
-0.801722 -1.49406 4.33481 255 255 255
0.162077 1.63705 5.01222 255 255 255
0.288834 1.37896 4.76973 255 255 255
-0.0711767 0.0394287 4.84983 255 255 255
0.0146352 -1.50091 4.07834 255 255 255
0.154393 1.63876 4.07061 255 255 255
0.830766 1.65537 4.39069 255 255 255
-0.240932 0.549131 5.08671 255 255 255
-0.631034 1.82731 5.70161 255 255 255
-0.142008 -0.0254892 4.95966 255 255 255
-0.246026 -0.355495 4.40014 255 255 255
0.396756 -1.71555 4.89344 255 255 255
0.184674 1.48857 4.15373 255 255 255
-0.0467272 1.2841 5.05222 255 255 255
0.364996 1.43767 4.0121 255 255 255
-0.0945752 0.818284 4.50221 255 255 255
-0.62868 1.26097 4.95589 255 255 255
-0.856077 -0.794784 5.68539 255 255 255
0.43622 1.65452 4.60052 255 255 255
0.513279 1.69427 5.1802 255 255 255
0.205329 0.154443 5.24451 255 255 255
-0.478799 -0.491781 5.10873 255 255 255
0.418198 -1.67442 5.12927 255 255 255
-0.937939 1.79333 5.83052 255 255 255
-0.876052 1.79676 4.1598 255 255 255
0.139519 -0.741831 5.40881 255 255 255
0.862269 -0.284358 4.54571 255 255 255
0.497654 1.50622 4.72737 255 255 255
-0.369822 -0.162479 5.08447 255 255 255
-0.226645 1.41058 5.36796 255 255 255
0.264744 -1.70208 5.4208 255 255 255
-0.534838 -1.20948 4.61524 255 255 255
0.575454 -0.272184 4.70326 255 255 255
0.490631 -1.75798 4.47872 255 255 255
-0.955322 0.710119 5.76536 255 255 255
-0.795656 1.10591 4.92376 255 255 255
0.382556 -0.616652 5.85201 255 255 255
-0.0520579 0.556007 4.08217 255 255 255
0.211163 0.14291 5.694 255 255 255
0.749947 1.38247 5.63077 255 255 255
-0.7099 0.616427 5.47193 255 255 255
-0.329396 -1.36818 4.39012 255 255 255
0.740869 0.523286 5.37067 255 255 255
0.396034 -1.75198 4.02295 255 255 255
0.365748 1.12768 5.36075 255 255 255
-0.0845043 0.738482 5.77283 255 255 255
-0.914125 0.507404 5.02209 255 255 255
-0.431335 1.03436 4.59743 255 255 255
-0.109165 -0.527496 5.63429 255 255 255
-0.416702 0.384076 5.01202 255 255 255
-0.591341 0.208101 5.4604 255 255 255
-0.112331 1.15471 5.2972 255 255 255
0.245551 -0.755969 4.5907 255 255 255
0.353267 0.904376 4.66717 255 255 255
-0.564263 -0.101453 5.68549 255 255 255
0.538918 0.603952 4.9781 255 255 255
0.0428197 -1.25773 4.04693 255 255 255
0.413535 1.05289 4.7223 255 255 255
0.935144 -0.554608 4.73584 255 255 255
0.0957652 -1.70802 4.05109 255 255 255
-0.344692 0.265328 4.24638 255 255 255
-0.897014 0.349608 4.10098 255 255 255
-0.749795 -0.143279 5.90832 255 255 255
-0.743843 -0.26453 4.00044 255 255 255
-0.906185 -0.868381 5.85668 255 255 255
0.0893112 -1.99525 4.58309 255 255 255
0.0655412 1.47754 5.88988 255 255 255
0.548393 -1.72221 4.33307 255 255 255
-0.265547 0.735113 4.13339 255 255 255
-0.554415 -1.09326 4.16925 255 255 255
0.752693 1.37517 5.51869 255 255 255
0.0508605 -1.82236 4.89325 255 255 255
-0.654555 -0.392532 4.92083 255 255 255
0.944167 -0.0102104 5.39979 255 255 255
0.680995 -1.64925 4.21271 255 255 255
0.366556 -1.53934 4.49857 255 255 255
-0.960276 1.23396 5.61067 255 255 255
0.714907 -0.193675 5.66975 255 255 255
-0.33203 1.05168 4.92508 255 255 255
0.8271 0.568784 4.83024 255 255 255
-0.149203 -0.997623 5.53821 255 255 255
-0.128783 0.852321 5.72131 255 255 255
0.347899 -1.85192 5.18219 255 255 255
-0.0521668 0.755496 4.2897 255 255 255
-0.472213 0.545209 5.17749 255 255 255
-0.334087 -1.67357 4.81331 255 255 255
-0.691541 -1.23241 5.62591 255 255 255
-0.691204 -1.57283 4.05908 255 255 255
-0.745152 -1.64188 4.1466 255 255 255
-0.562353 -0.840471 4.86471 255 255 255
0.927261 -0.792585 4.34034 255 255 255
-0.0596794 0.232587 4.23672 255 255 255
-0.44873 0.909716 5.31599 255 255 255
0.379206 0.401383 4.72628 255 255 255
0.117921 -1.63423 5.35802 255 255 255
-0.840234 1.45057 5.89952 255 255 255
-0.646968 0.812357 5.82365 255 255 255
0.692156 -0.952644 4.42457 255 255 255
0.555358 -0.973534 4.57111 255 255 255
0.059889 0.31393 4.49923 255 255 255
0.713722 0.598733 4.02254 255 255 255
-0.6794 -1.69498 5.89458 255 255 255
0.113963 -1.13117 4.39067 255 255 255
-0.0910526 -0.00416787 4.03793 255 255 255
0.796398 -1.32112 5.23393 255 255 255
-0.407112 -1.05786 5.6729 255 255 255
0.103833 -1.19017 5.62489 255 255 255
-0.134599 1.32626 4.80156 255 255 255
-0.21924 -1.77878 5.24204 255 255 255
-0.104344 0.774118 4.86103 255 255 255
-0.496873 -1.44884 4.08944 255 255 255
0.648406 1.98968 4.57867 255 255 255
0.640437 1.71731 4.79096 255 255 255
-0.313883 1.79096 4.10323 255 255 255
-0.550263 1.21965 5.08095 255 255 255
-0.0708643 -1.51492 5.03922 255 255 255
0.192335 -1.86605 5.92507 255 255 255
-0.101158 -0.0385908 4.77698 255 255 255
0.682429 -1.78236 5.78719 255 255 255
0.479556 -1.02658 4.11118 255 255 255
0.324151 -0.546788 4.09314 255 255 255
-0.706397 -0.12496 4.57868 255 255 255
0.137002 1.21474 4.89966 255 255 255
0.805689 -0.0407953 4.43118 255 255 255
-0.90577 -1.51036 4.95485 255 255 255
-0.943996 -1.74104 5.47893 255 255 255
-0.339154 -0.427092 4.16164 255 255 255
0.15848 -1.71574 4.47753 255 255 255
-0.619507 1.72361 4.75431 255 255 255
0.279816 1.09782 5.76439 255 255 255
-0.013004 1.62064 4.6992 255 255 255
0.690043 -0.759384 5.9785 255 255 255
-0.278158 0.036635 5.12576 255 255 255
-0.0259229 0.913892 5.04368 255 255 255
0.247954 1.09686 4.04727 255 255 255
0.582063 -0.459802 5.61191 255 255 255
0.47331 -0.147861 4.19168 255 255 255
-0.564553 0.999183 5.06983 255 255 255
-0.256911 1.34608 5.60323 255 255 255
-0.714867 -0.701242 5.42028 255 255 255
-0.866009 0.487572 5.97348 255 255 255
0.317272 -0.00328748 4.13558 255 255 255
0.560468 -0.228767 4.41292 255 255 255
-0.223411 0.379833 4.78492 255 255 255
-0.748329 0.523641 4.83573 255 255 255
-0.124665 1.45643 5.74124 255 255 255
-0.941674 -0.417224 4.26464 255 255 255
0.107231 1.72161 5.60043 255 255 255
-0.367968 0.535396 5.23717 255 255 255
0.603306 1.79838 5.47568 255 255 255
-0.0635139 -1.10705 4.79812 255 255 255
0.944007 0.707238 5.06362 255 255 255
-0.0765429 -0.690493 5.22477 255 255 255
-0.428863 -0.386129 4.98357 255 255 255
-0.977835 1.6544 4.53028 255 255 255
-0.432254 0.405438 4.5479 255 255 255
0.638094 1.6489 5.19681 255 255 255
-0.934326 -0.0868922 5.39909 255 255 255
0.00631655 -1.89685 4.38093 255 255 255
-0.379017 1.7641 4.43202 255 255 255
0.252691 1.89527 5.90097 255 255 255
0.643784 -0.0968128 5.60586 255 255 255
0.584931 1.43796 4.59551 255 255 255
-0.441989 -1.96852 4.12753 255 255 255
0.543758 -0.746774 5.86946 255 255 255
-0.325974 0.0611392 5.19698 255 255 255
-0.643591 -1.05011 5.46208 255 255 255
0.60123 -0.199055 4.83437 255 255 255
-0.727307 -1.11499 5.85953 255 255 255
-0.612373 -0.149603 4.49177 255 255 255
0.506431 1.15 5.30022 255 255 255
0.213899 -0.98719 4.60633 255 255 255
0.791363 -1.86019 4.82234 255 255 255
-0.530478 -0.921316 5.14934 255 255 255
-0.805786 0.654375 5.45598 255 255 255
-0.0443604 0.181402 5.93195 255 255 255
-0.612756 0.0160317 4.58835 255 255 255
-0.0845598 0.950711 5.12693 255 255 255
-0.555386 -0.858783 5.93292 255 255 255
-0.875274 0.18775 4.19967 255 255 255
0.93765 -0.528996 4.87464 255 255 255
0.951546 0.757216 5.67678 255 255 255
0.596925 0.575239 4.83612 255 255 255
-0.88256 0.940029 5.50782 255 255 255
-0.0771514 0.377379 5.50136 255 255 255
-0.0935364 -0.585919 4.01672 255 255 255
-0.550132 -0.943628 4.38669 255 255 255
0.487414 -0.669983 4.04649 255 255 255
0.26075 1.01261 4.54191 255 255 255
0.17605 -1.04096 4.79456 255 255 255
0.958625 -0.982993 4.27099 255 255 255
-0.0165709 -0.521041 5.37582 255 255 255
-0.871008 -1.29292 5.10891 255 255 255
0.247376 1.87565 4.00408 255 255 255
0.395152 1.76489 4.04027 255 255 255
0.753661 -0.963048 4.15081 255 255 255
-0.127719 0.9545 5.1799 255 255 255
-0.308002 -0.0472729 4.39957 255 255 255
-0.701319 -1.20155 5.01447 255 255 255
0.863514 1.16731 5.60331 255 255 255
0.546096 1.05406 4.68164 255 255 255
-0.862664 -1.15208 4.65271 255 255 255
0.36327 0.728114 4.47644 255 255 255
-0.160521 0.927287 4.02751 255 255 255
0.574811 1.25984 5.79967 255 255 255
