ply
format ascii 1.0
element vertex 504
property float x
property float y
property float z
property uchar red
property uchar green
property uchar blue
end_header
-0 -0 -0 0 0 255
-1.44247 -0.33163 0.224092 0 0 255
-0.103637 -0.0585898 0.00141755 0 0 255
-0.741092 -0.704388 0.105654 0 0 255
0.779588 -0.742313 4.86816 255 255 255
0.502198 0.603992 4.253 255 255 255
-0.861894 0.185355 5.55359 255 255 255
-0.523678 1.23042 5.16873 255 255 255
-0.178886 -1.26869 4.39101 255 255 255
-0.782996 0.120724 5.02869 255 255 255
0.141223 1.54574 4.11147 255 255 255
-0.118343 1.77632 5.97248 255 255 255
0.0678936 -1.9927 5.00448 255 255 255
0.994857 1.85852 4.42909 255 255 255
-0.214288 1.56052 4.77023 255 255 255
-0.376132 -1.98671 4.81378 255 255 255
0.615133 -1.43496 4.45199 255 255 255
-0.0231237 1.57132 5.98297 255 255 255
-0.955208 -1.96573 5.02037 255 255 255
-0.816247 0.377436 4.36389 255 255 255
0.994886 1.25397 5.23595 255 255 255
0.372492 1.9549 4.91933 255 255 255
0.803801 -0.916124 5.42275 255 255 255
-0.122113 -0.863833 5.46217 255 255 255
-0.518112 0.451444 5.05389 255 255 255
-0.924917 -1.65082 5.684 255 255 255
0.947844 -1.28851 4.02377 255 255 255
-0.495731 1.96806 4.13077 255 255 255
0.372055 -0.702621 5.22214 255 255 255
-0.3006 0.0576735 5.48983 255 255 255
0.810304 1.89939 5.84413 255 255 255
0.540616 0.417142 5.18313 255 255 255
0.153213 -0.83997 5.34739 255 255 255
0.93804 1.75819 5.76688 255 255 255
0.424295 0.825435 5.34266 255 255 255
-0.416333 -0.0473689 5.16697 255 255 255
0.25518 -1.97754 5.63627 255 255 255
0.801665 -0.542342 4.29203 255 255 255
-0.732761 1.9017 4.67816 255 255 255
-0.652057 -0.929346 4.8042 255 255 255
-0.0921187 -1.93375 4.94652 255 255 255
-0.497451 1.4322 5.42837 255 255 255
0.850831 1.91214 5.73281 255 255 255
-0.0580723 0.744723 5.69647 255 255 255
0.0115651 1.50884 5.34283 255 255 255
0.785967 -1.29419 4.82541 255 255 255
-0.850373 -0.139386 5.00243 255 255 255
-0.418018 -0.160089 5.11291 255 255 255
-0.93958 -1.99051 5.59039 255 255 255
-0.4356 -0.727208 4.75129 255 255 255
-0.300477 -1.52375 4.54922 255 255 255
-0.188734 0.240478 5.90729 255 255 255
-0.0294666 0.560434 5.89637 255 255 255
-0.698524 1.31087 4.96393 255 255 255
-0.111258 1.95346 5.22516 255 255 255
0.836351 -0.833031 5.91544 255 255 255
0.362559 -0.16063 4.00629 255 255 255
-0.753736 1.40783 5.98474 255 255 255
0.10182 -1.82233 5.23519 255 255 255
-0.34549 -0.261109 4.62424 255 255 255
0.55698 -1.30834 5.09169 255 255 255
-0.641535 -1.81207 4.11979 255 255 255
0.0692762 1.22016 4.55709 255 255 255
-0.36623 -0.290935 4.43328 255 255 255
-0.48353 1.14958 5.28343 255 255 255
0.648913 0.0228765 4.13874 255 255 255
0.940707 -0.31536 4.96411 255 255 255
-0.0863284 -1.4473 5.938 255 255 255
0.815204 1.92827 4.54524 255 255 255
-0.337535 -1.30088 5.04032 255 255 255
0.738799 0.278371 5.50621 255 255 255
-0.252323 1.64099 4.83239 255 255 255
-0.960295 -0.410673 4.31581 255 255 255
0.668417 -1.83875 5.61031 255 255 255
0.679188 -0.0168514 5.79297 255 255 255
0.214282 -0.647469 4.42242 255 255 255
-0.289434 0.602955 4.1227 255 255 255
0.582418 0.105934 4.79836 255 255 255
0.544408 -0.601821 5.14441 255 255 255
-0.401874 -0.81612 4.46509 255 255 255
0.67433 -0.948544 4.07882 255 255 255
-0.601038 1.91358 5.9341 255 255 255
-0.474642 0.164325 4.00033 255 255 255
-0.612505 -0.9504 5.73009 255 255 255
0.00541651 -1.44471 5.23478 255 255 255
-0.126937 -1.31386 5.07196 255 255 255
0.584507 -0.322434 4.27497 255 255 255
-0.534031 1.77161 4.85688 255 255 255
0.497298 1.19403 4.36207 255 255 255
0.87023 -1.73134 4.31924 255 255 255
0.651239 -1.0442 5.33105 255 255 255
0.0413746 0.0285875 4.60965 255 255 255
0.0910594 -0.00226106 5.8559 255 255 255
0.785207 -0.0750706 4.66244 255 255 255
-0.811131 -1.87983 5.92569 255 255 255
0.496084 -0.367331 4.00843 255 255 255
-0.402004 -0.838192 4.45251 255 255 255
0.177744 -0.0233842 5.98428 255 255 255
-0.900931 -0.557096 4.41191 255 255 255
-0.447139 0.115196 4.66185 255 255 255
-0.990928 0.123578 4.64327 255 255 255
0.455712 -1.02617 4.76371 255 255 255
-0.106374 -0.25539 5.64926 255 255 255
-0.672652 -1.98996 5.30696 255 255 255
0.341018 0.638775 5.23329 255 255 255
0.829804 1.61401 5.86078 255 255 255
-0.344117 0.560432 4.23662 255 255 255
-0.919452 -1.83588 4.80348 255 255 255
-0.684677 0.574626 4.71445 255 255 255
0.797976 0.735175 4.80037 255 255 255
0.83026 0.400509 4.40531 255 255 255
0.440745 -1.34157 5.51003 255 255 255
0.608539 1.65871 4.78053 255 255 255
0.121456 1.74898 5.0278 255 255 255
0.316891 0.589506 4.42196 255 255 255
-0.284438 -1.68744 4.99267 255 255 255
0.350685 0.576131 4.99521 255 255 255
0.55918 -0.852068 4.57338 255 255 255
-0.919803 -1.78511 4.00704 255 255 255
-0.837625 0.520487 4.79857 255 255 255
-0.623253 -1.81387 5.28087 255 255 255
-0.964588 -0.870758 4.41625 255 255 255
0.774649 -0.0309687 5.95564 255 255 255
-0.519426 0.808838 5.04907 255 255 255
0.991429 -0.650409 4.25267 255 255 255
0.914585 1.27176 5.72324 255 255 255
-0.676364 0.0814079 5.50179 255 255 255
-0.878435 1.69196 5.91165 255 255 255
0.0188396 -0.650839 4.64029 255 255 255
0.0603418 0.307245 5.8275 255 255 255
-0.0568134 1.71641 4.72251 255 255 255
0.603599 0.754581 4.76851 255 255 255
-0.967475 -1.52251 4.68582 255 255 255
0.180039 0.669581 5.55441 255 255 255
-0.0269648 -1.07391 5.87022 255 255 255
0.887175 -0.561508 5.67205 255 255 255
-0.662505 -0.02146 4.10299 255 255 255
0.945846 -1.74562 4.45891 255 255 255
0.511495 0.502799 4.10966 255 255 255
0.782505 -1.91048 5.97541 255 255 255
0.466573 -0.535049 4.47071 255 255 255
0.864326 1.35932 4.84565 255 255 255
-0.812508 -0.536978 5.06751 255 255 255
0.421273 -0.250655 4.39027 255 255 255
0.0432905 1.44616 5.50675 255 255 255
-0.229834 -0.315235 5.08453 255 255 255
0.0972642 1.69066 4.10636 255 255 255
-0.116763 -1.99971 5.62353 255 255 255
0.089612 -1.86435 5.86138 255 255 255
-0.058128 -0.715914 5.52504 255 255 255
-0.199318 -1.13819 5.74323 255 255 255
-0.688091 -0.461897 5.56956 255 255 255
0.310284 1.19041 5.38236 255 255 255
0.920524 -0.728872 4.09673 255 255 255
0.583862 0.11463 4.33753 255 255 255
-0.990256 -1.38675 4.42917 255 255 255
0.477204 -0.992506 4.87001 255 255 255
-0.57102 -1.53541 5.17719 255 255 255
0.840243 0.173271 5.35871 255 255 255
0.632456 -1.0952 4.53146 255 255 255
0.968249 1.14209 4.34403 255 255 255
-0.501614 -0.397562 5.03962 255 255 255
-0.0496177 -1.44607 4.19392 255 255 255
-0.149284 1.85709 4.44667 255 255 255
0.683573 0.99595 5.76761 255 255 255
-0.747557 0.872413 4.89996 255 255 255
0.132342 -1.33597 5.02519 255 255 255
-0.866417 -0.698405 5.15014 255 255 255
0.687539 1.25817 5.16699 255 255 255
0.449417 1.04416 4.53048 255 255 255
-0.45406 1.97912 5.43464 255 255 255
0.669867 1.43676 5.60029 255 255 255
0.568231 -1.95216 5.9515 255 255 255
0.956813 -1.92207 4.35896 255 255 255
-0.843696 1.24518 5.71955 255 255 255
-0.31478 0.771112 5.44623 255 255 255
0.388136 -0.997363 5.75065 255 255 255
-0.710869 -0.470787 5.6649 255 255 255
-0.0294938 0.879581 4.05529 255 255 255
0.526934 -0.560215 5.85104 255 255 255
-0.296847 -1.81621 4.07622 255 255 255
-0.818349 1.19979 5.40899 255 255 255
0.573277 -0.245097 5.36997 255 255 255
0.254499 -1.82282 4.29274 255 255 255
0.538242 -0.11002 5.57622 255 255 255
-0.920052 -0.210747 5.07479 255 255 255
0.0638346 0.451322 4.88644 255 255 255
0.0781854 -0.537533 4.35222 255 255 255
0.301102 0.447816 5.55889 255 255 255
-0.549833 -1.85613 5.92194 255 255 255
0.00928109 1.08234 5.00804 255 255 255
0.370621 -0.477657 5.27771 255 255 255
0.731831 -1.37564 5.1669 255 255 255
0.554349 -1.87713 4.36022 255 255 255
-0.909809 -1.78911 4.96585 255 255 255
-0.874457 0.282221 5.96824 255 255 255
0.185633 -0.808392 4.42675 255 255 255
-0.100989 -0.830598 5.97292 255 255 255
0.202222 -1.5538 4.7947 255 255 255
-0.543647 0.853062 4.55542 255 255 255
0.849271 1.12841 5.82836 255 255 255
0.483093 1.76684 5.64934 255 255 255
0.570589 0.491547 5.08691 255 255 255
-0.723227 -0.972184 5.97876 255 255 255
0.521441 -0.934598 4.74163 255 255 255
-0.235898 1.60834 5.7445 255 255 255
0.645996 0.209558 4.3257 255 255 255
0.797551 -0.829576 5.91824 255 255 255
-0.359875 -1.189 5.74383 255 255 255
0.933985 -0.00318574 4.35288 255 255 255
-0.144093 1.67873 4.11196 255 255 255
0.0426861 -1.84436 4.83842 255 255 255
-0.959146 0.34142 4.43825 255 255 255
0.189017 -0.609401 4.97248 255 255 255
-0.24697 0.496339 5.44785 255 255 255
0.413694 -0.440615 4.36248 255 255 255
0.25929 -1.15444 4.87213 255 255 255
0.950753 1.66405 5.416 255 255 255
-0.044012 -0.0397331 4.16647 255 255 255
-0.622089 -0.667976 4.72882 255 255 255
-0.65112 0.371234 5.4323 255 255 255
0.505667 1.94111 5.23518 255 255 255
-0.376922 -1.96196 4.85837 255 255 255
0.510242 0.728031 5.62962 255 255 255
0.157363 1.34079 4.20862 255 255 255
-0.461208 1.69007 5.16616 255 255 255
-0.216513 -1.87587 5.84798 255 255 255
0.0450115 0.125871 5.93527 255 255 255
-0.447129 -0.775498 5.70731 255 255 255
0.725096 0.89265 4.67018 255 255 255
0.914251 1.74261 4.01138 255 255 255
-0.0421709 -0.748236 4.62984 255 255 255
-0.277946 1.37911 4.13263 255 255 255
0.000613481 -1.70838 5.84689 255 255 255
0.707712 -1.8932 5.58218 255 255 255
-0.455764 1.80272 4.78599 255 255 255
0.123388 1.8792 5.25427 255 255 255
-0.177077 0.934922 5.58837 255 255 255
-0.809805 0.250789 5.32712 255 255 255
-0.827061 1.08206 5.70882 255 255 255
-0.330196 -1.07368 5.5973 255 255 255
-0.91582 -1.71568 4.51867 255 255 255
0.23726 -0.563379 4.73153 255 255 255
-0.99306 1.72812 5.98171 255 255 255
-0.0105134 -1.85183 5.35605 255 255 255
-0.605753 -1.00199 5.73814 255 255 255
-0.429387 -1.92204 4.89907 255 255 255
-0.64665 -0.770624 5.51277 255 255 255
0.941196 0.894516 5.0507 255 255 255
0.737929 1.54161 5.02593 255 255 255
-0.63104 -0.27327 5.35414 255 255 255
-0.135989 0.851047 5.34792 255 255 255
-0.442454 -0.263697 5.34004 255 255 255
0.256955 1.78846 4.22762 255 255 255
0.259497 1.11012 4.77974 255 255 255
0.14056 0.0360064 4.11222 255 255 255
0.80364 1.97822 4.39266 255 255 255
0.876914 -1.38052 5.77561 255 255 255
0.99731 1.27403 5.62287 255 255 255
0.233861 0.408327 4.99507 255 255 255
0.262463 -0.739699 4.66212 255 255 255
-0.658177 -0.143021 5.77633 255 255 255
0.641942 1.91393 5.83827 255 255 255
0.146198 0.342457 5.85534 255 255 255
-0.79092 -0.739968 5.00417 255 255 255
-0.151739 1.81216 5.12391 255 255 255
0.297593 1.24518 5.17725 255 255 255
-0.397552 1.99803 5.21427 255 255 255
-0.340957 -0.874468 5.55942 255 255 255
-0.685608 1.08184 5.58559 255 255 255
0.812327 1.18665 4.13529 255 255 255
0.185003 -1.19741 5.03865 255 255 255
0.619559 -1.84467 5.39474 255 255 255
0.222016 0.35485 5.37407 255 255 255
0.737003 -1.9876 4.24683 255 255 255
0.551795 0.274185 4.58522 255 255 255
0.103138 0.516672 4.09022 255 255 255
0.537508 0.480301 5.6431 255 255 255
0.743548 0.59199 5.33891 255 255 255
0.823527 1.62886 5.03692 255 255 255
0.0622461 -0.622372 5.49878 255 255 255
0.336388 0.958069 4.83045 255 255 255
-0.0079566 0.316658 5.69119 255 255 255
-0.203369 1.66824 5.06116 255 255 255
0.166259 -0.449466 4.95302 255 255 255
-0.435135 1.81573 4.77885 255 255 255
0.635755 -0.21656 4.63378 255 255 255
-0.0827589 0.620741 5.41293 255 255 255
-0.626402 -0.515705 5.33763 255 255 255
-0.42665 -1.9121 5.06464 255 255 255
0.616408 -0.376014 5.81812 255 255 255
0.550011 -0.977217 4.26517 255 255 255
-0.5616 1.78967 5.89387 255 255 255
0.354842 -0.246274 4.58154 255 255 255
-0.0181587 -0.230053 5.50317 255 255 255
0.956734 -1.9445 4.56229 255 255 255
0.148311 1.94605 5.94932 255 255 255
0.996988 -0.809562 4.82175 255 255 255
0.730248 1.60279 4.20188 255 255 255
0.771009 0.951419 5.39847 255 255 255
0.0244816 0.957842 5.83757 255 255 255
0.0247036 -1.19582 4.23361 255 255 255
0.90094 1.62512 4.98564 255 255 255
-0.952295 0.86734 5.23359 255 255 255
-0.236915 1.03293 5.20317 255 255 255
0.971378 1.63025 4.20428 255 255 255
-0.930471 -1.14679 5.86015 255 255 255
-0.30644 0.603137 5.48828 255 255 255
0.111402 -1.85607 4.62538 255 255 255
-0.927542 0.169263 5.88729 255 255 255
-0.999012 0.435139 4.49306 255 255 255
0.663325 0.192091 4.32157 255 255 255
0.199192 -1.81452 5.02377 255 255 255
0.87918 -0.233305 5.11999 255 255 255
-0.124615 0.601604 4.52617 255 255 255
0.440616 -0.845161 4.98993 255 255 255
0.828645 -1.10798 5.11249 255 255 255
0.872413 0.337348 4.60441 255 255 255
0.944204 1.47066 5.2597 255 255 255
-0.494274 0.230541 5.78885 255 255 255
-0.195752 0.63713 4.9427 255 255 255
0.810618 0.161781 4.1714 255 255 255
0.434776 0.207036 5.30955 255 255 255
-0.584457 1.8878 4.90103 255 255 255
-0.836707 1.02764 4.25619 255 255 255
-0.682577 0.699917 5.4527 255 255 255
-0.0144899 -0.0904967 5.78584 255 255 255
0.297789 0.625269 4.12046 255 255 255
0.773047 1.53473 4.06406 255 255 255
0.814998 1.21181 4.58597 255 255 255
-0.794675 1.75094 4.48164 255 255 255
-0.637023 -1.75779 4.58053 255 255 255
0.165761 -0.848399 5.77102 255 255 255
0.406385 -0.0876186 4.89021 255 255 255
-0.457398 0.890538 5.93872 255 255 255
-0.739741 1.44356 5.37224 255 255 255
-0.632323 1.48557 4.62893 255 255 255
0.40659 0.114731 4.48274 255 255 255
-0.699547 1.49995 4.62208 255 255 255
0.523476 1.52605 5.69762 255 255 255
-0.0410362 0.303716 4.93586 255 255 255
-0.16097 -1.47713 4.05845 255 255 255
0.374905 -0.767536 5.00742 255 255 255
0.523537 -1.81141 5.10099 255 255 255
-0.602036 -0.383137 4.08443 255 255 255
0.309656 0.459184 4.12789 255 255 255
-0.438822 -1.20036 4.28309 255 255 255
-0.430312 0.485379 4.10896 255 255 255
-0.0718768 -0.752249 5.9971 255 255 255
-0.649481 0.33491 4.09049 255 255 255
0.410982 -0.854613 5.59071 255 255 255
0.56052 0.758767 5.55132 255 255 255
0.336333 -0.862596 4.66179 255 255 255
0.348095 0.147872 4.38601 255 255 255
-0.372752 0.907131 4.32295 255 255 255
0.0788477 0.598998 4.15868 255 255 255
0.821053 -1.20222 4.35627 255 255 255
-0.208521 1.15766 4.92399 255 255 255
0.215406 -1.25557 4.14374 255 255 255
-0.243087 -1.31068 4.70035 255 255 255
-0.334142 -1.71752 5.88837 255 255 255
0.801434 -0.736305 5.12563 255 255 255
-0.487004 -0.4086 4.94695 255 255 255
-0.49321 0.92876 4.34329 255 255 255
0.897316 1.64541 4.40536 255 255 255
0.186536 1.13687 5.609 255 255 255
0.801641 -1.61118 5.05164 255 255 255
-0.704607 -0.26977 5.85156 255 255 255
0.21342 -0.382217 5.56491 255 255 255
0.617414 0.713474 4.45341 255 255 255
0.490532 0.281882 4.92442 255 255 255
0.519319 -1.96503 5.51181 255 255 255
0.626816 0.480295 4.72904 255 255 255
0.578908 1.39182 5.84004 255 255 255
0.774528 -0.259924 4.65619 255 255 255
0.583932 -1.23331 5.75154 255 255 255
0.825753 0.00438666 5.98487 255 255 255
0.201491 0.39993 4.16977 255 255 255
-0.0383213 -1.4855 4.34818 255 255 255
-0.898827 0.351193 4.47084 255 255 255
0.367967 -0.0250587 5.747 255 255 255
0.0868919 0.643155 4.23207 255 255 255
-0.998612 1.72126 5.00519 255 255 255
-0.176572 -0.494313 5.94077 255 255 255
-0.227591 1.31146 4.51744 255 255 255
-0.393095 1.56213 4.90845 255 255 255
0.583784 1.97493 5.72585 255 255 255
0.621074 0.121233 4.24562 255 255 255
-0.690216 -1.88959 4.78963 255 255 255
0.5924 1.99845 5.99992 255 255 255
-0.969184 1.69875 4.19409 255 255 255
0.343538 1.57414 5.08213 255 255 255
0.45438 0.447991 5.20197 255 255 255
0.736789 -1.67992 4.48896 255 255 255
-0.12939 -1.99401 5.71499 255 255 255
0.283553 -1.7127 4.80684 255 255 255
-0.427696 -1.14709 4.79719 255 255 255
0.795788 -0.0995535 5.62411 255 255 255
0.431513 -1.22597 5.6344 255 255 255
0.636243 1.56809 4.048 255 255 255
-0.691296 1.87626 4.30448 255 255 255
-0.874326 1.97615 5.81385 255 255 255
0.322984 0.876592 4.25992 255 255 255
-0.578539 1.73514 5.29716 255 255 255
-0.899133 0.848569 5.99464 255 255 255
-0.690303 0.168451 4.58735 255 255 255
-0.998419 -1.34911 5.9912 255 255 255
0.125134 -0.857403 5.072 255 255 255
-0.704798 1.87971 5.37563 255 255 255
0.80296 -1.80682 4.58796 255 255 255
-0.553178 -0.889702 4.4477 255 255 255
0.0372936 0.341823 4.97292 255 255 255
-0.337802 -1.77704 4.79254 255 255 255
0.24226 1.58348 4.25078 255 255 255
0.781563 0.374127 4.34309 255 255 255
0.732998 0.862975 5.1437 255 255 255
-0.171821 1.00591 5.48394 255 255 255
-0.977662 0.387285 4.58177 255 255 255
0.125803 -1.65979 5.87004 255 255 255
0.623093 -0.860887 4.44121 255 255 255
-0.445267 -0.655853 4.85736 255 255 255
-0.988547 1.36191 4.82597 255 255 255
0.965674 1.00879 4.55106 255 255 255
-0.374257 0.89014 5.64901 255 255 255
0.749931 -1.1105 5.00656 255 255 255
0.617014 -0.0686581 4.61771 255 255 255
0.797397 -0.648895 5.15143 255 255 255
0.980788 -1.72677 4.13788 255 255 255
-0.989248 0.6196 5.90222 255 255 255
-0.903242 1.11103 5.16863 255 255 255
0.048946 0.72734 4.54524 255 255 255
0.137132 1.27089 5.88489 255 255 255
-0.0779427 -1.5208 4.19245 255 255 255
0.517092 -0.435596 4.18631 255 255 255
-0.856809 -0.922565 5.54741 255 255 255
-0.108612 -0.618045 4.65773 255 255 255
-0.354037 0.989522 4.13122 255 255 255
-0.413315 -0.58923 4.62964 255 255 255
0.655639 0.564837 4.18329 255 255 255
0.833835 -0.310155 5.16397 255 255 255
-0.324695 0.0962611 5.49698 255 255 255
0.828818 0.261438 5.34937 255 255 255
-0.649925 -1.50349 5.83808 255 255 255
-0.6192 -0.633944 4.88582 255 255 255
0.189339 -1.28239 4.43248 255 255 255
0.159304 -1.16929 5.63735 255 255 255
-0.489115 1.15442 5.25283 255 255 255
-0.00705554 1.77465 5.16265 255 255 255
-0.565572 0.495678 4.87307 255 255 255
-0.0921936 0.00253411 5.75685 255 255 255
0.929504 -0.972248 5.91226 255 255 255
0.688962 1.36208 5.23786 255 255 255
0.856186 -0.931528 4.66244 255 255 255
0.208884 1.59937 4.77731 255 255 255
0.480001 -1.94451 5.59051 255 255 255
-0.266246 0.595066 5.45896 255 255 255
-0.69334 -0.893302 4.31016 255 255 255
-0.680368 0.702646 4.38568 255 255 255
-0.488455 1.1581 5.55063 255 255 255
0.878103 0.282011 4.69831 255 255 255
-0.586304 0.223224 5.36388 255 255 255
-0.49823 -1.87144 4.78161 255 255 255
-0.336628 1.85687 5.62807 255 255 255
-0.200003 0.844099 5.57728 255 255 255
0.0211948 -0.821974 4.37929 255 255 255
0.785852 -1.05735 5.86876 255 255 255
0.377992 -0.308504 5.69067 255 255 255
-0.563646 -1.35791 5.2279 255 255 255
-0.937337 -1.65981 5.56046 255 255 255
-0.121765 1.08383 4.86038 255 255 255
-0.98532 0.0945556 5.38933 255 255 255
0.509829 1.15 4.57906 255 255 255
-0.500033 -1.65809 4.55778 255 255 255
0.866281 -1.40391 4.09797 255 255 255
0.698107 -0.367543 4.16061 255 255 255
0.476496 -1.82312 4.46931 255 255 255
-0.400862 0.963422 4.24132 255 255 255
0.414927 0.364349 4.14688 255 255 255
0.900578 -0.447346 4.6803 255 255 255
-0.382757 1.80235 5.43453 255 255 255
-0.80011 1.87231 5.59672 255 255 255
0.335524 0.802244 5.05031 255 255 255
0.552761 1.98849 4.9147 255 255 255
-0.918105 1.73505 4.60107 255 255 255
0.380497 -1.03337 4.70531 255 255 255
-0.676695 0.922121 5.10112 255 255 255
0.488628 0.931577 5.30423 255 255 255
-0.728539 -0.809218 5.87779 255 255 255
0.0108977 -1.24615 5.71226 255 255 255
-0.5839 -0.960761 4.06166 255 255 255
-0.713626 1.31589 4.78389 255 255 255
0.290606 0.1332 4.37994 255 255 255
-0.521616 1.754 4.01796 255 255 255
-0.799085 -1.85189 4.68991 255 255 255
0.491517 -1.79576 4.34865 255 255 255
-0.124002 1.0198 5.34124 255 255 255
-0.425965 -1.62399 5.98581 255 255 255
-0.623457 0.522451 5.46835 255 255 255
-0.29251 1.63663 4.60557 255 255 255
0.226434 0.446022 4.39371 255 255 255
0.258381 1.30436 5.12714 255 255 255
0.518835 1.7722 4.21255 255 255 255
0.0960015 0.433238 4.25661 255 255 255
0.0958684 -1.36278 5.69233 255 255 255
