ply
format ascii 1.0
element vertex 504
property float x
property float y
property float z
property uchar red
property uchar green
property uchar blue
end_header
-0 -0 -0 0 0 255
-0.988696 -0.187212 0.102303 0 0 255
-0.400834 -0.187816 0.0196328 0 0 255
-0.430249 -0.305676 0.0279332 0 0 255
-0.304139 1.73644 5.66142 255 255 255
0.215799 -1.59335 5.74431 255 255 255
0.259233 -0.244071 5.35645 255 255 255
0.360906 -0.970804 4.20583 255 255 255
0.932955 1.42686 4.57792 255 255 255
-0.842485 1.48417 5.93646 255 255 255
0.954187 -1.08113 4.27623 255 255 255
0.665422 0.451926 4.41014 255 255 255
-0.623917 1.36994 4.5526 255 255 255
-0.0678319 -1.57397 5.10267 255 255 255
0.578327 -1.27851 5.89098 255 255 255
0.587693 -1.73226 5.59404 255 255 255
0.396092 0.995571 4.78674 255 255 255
0.844226 -0.208524 4.79577 255 255 255
0.786063 -1.18037 5.28884 255 255 255
0.037629 0.996456 5.85282 255 255 255
-0.936782 -0.798576 4.16636 255 255 255
0.218037 1.72145 5.49651 255 255 255
0.115574 1.02236 4.91191 255 255 255
-0.01283 1.38813 4.79937 255 255 255
0.768082 1.24085 4.2175 255 255 255
0.653396 -0.775496 5.83123 255 255 255
0.818488 0.975102 4.15659 255 255 255
0.33117 -0.784202 5.33472 255 255 255
-0.367369 1.01282 4.93678 255 255 255
-0.848724 1.10101 5.14001 255 255 255
0.599298 -0.3504 4.30129 255 255 255
0.726394 -1.0739 4.05836 255 255 255
0.706521 0.218441 4.15858 255 255 255
-0.716044 1.96985 4.18423 255 255 255
-0.259685 1.13641 5.51716 255 255 255
0.56936 1.07256 5.51337 255 255 255
-0.558543 -0.61359 4.62098 255 255 255
-0.949505 -1.43459 5.50825 255 255 255
-0.113102 1.2158 4.84547 255 255 255
0.0377904 1.13791 5.83061 255 255 255
0.24352 0.0372679 5.30387 255 255 255
-0.0851866 0.661483 4.96389 255 255 255
0.934815 1.7621 5.82278 255 255 255
-0.696396 -0.0459544 4.75463 255 255 255
0.411475 0.171892 5.15222 255 255 255
0.00967058 -0.231162 5.62013 255 255 255
-0.415777 -0.887762 5.84015 255 255 255
0.0881827 -1.94655 5.55176 255 255 255
-0.94231 1.54678 4.61891 255 255 255
-0.604415 -1.33212 5.75301 255 255 255
-0.850701 -0.828619 4.27833 255 255 255
-0.721159 0.966908 4.47575 255 255 255
0.789705 -1.76051 4.59438 255 255 255
-0.0166532 0.176799 5.83755 255 255 255
-0.730685 -1.40739 5.09396 255 255 255
0.416229 1.98681 5.25567 255 255 255
0.614185 -1.91665 5.63835 255 255 255
-0.342407 1.90075 4.78966 255 255 255
0.316138 -1.44963 4.90877 255 255 255
0.913708 -1.70649 5.10579 255 255 255
0.67764 1.17061 4.9433 255 255 255
0.0882024 -0.211912 4.74781 255 255 255
0.396468 1.28314 4.85886 255 255 255
-0.993502 -1.58063 4.42589 255 255 255
0.724754 0.554165 4.45008 255 255 255
0.780442 1.92477 4.20446 255 255 255
0.429886 1.96779 4.37836 255 255 255
0.0861867 -1.78617 5.00391 255 255 255
-0.904251 -1.40092 4.10714 255 255 255
-0.175039 -0.120877 4.7476 255 255 255
0.894195 1.10109 4.99473 255 255 255
0.582972 1.40836 5.87431 255 255 255
0.323674 -0.0638641 4.69168 255 255 255
-0.774957 0.0177305 5.28426 255 255 255
0.802697 -1.28907 5.43863 255 255 255
0.582635 1.0494 4.75928 255 255 255
-0.532216 0.412649 4.73776 255 255 255
-0.07314 -1.01734 5.58771 255 255 255
-0.396744 0.0879235 5.50969 255 255 255
-0.613416 0.357683 5.39565 255 255 255
0.0339486 0.623538 4.55085 255 255 255
-0.173192 -1.28617 5.38053 255 255 255
-0.815798 1.25175 5.03952 255 255 255
-0.72727 1.69534 4.9024 255 255 255
-0.177394 -1.75646 5.45739 255 255 255
0.244411 -0.0381359 4.49829 255 255 255
0.969468 1.20194 4.74434 255 255 255
0.898185 0.699475 5.06923 255 255 255
-0.203857 0.788753 4.16131 255 255 255
0.977086 1.9988 4.01827 255 255 255
-0.379008 0.924137 4.94618 255 255 255
0.506703 0.453601 5.32132 255 255 255
0.694397 -1.05003 5.83659 255 255 255
0.0772697 -1.58234 4.35261 255 255 255
0.135078 1.76892 5.52881 255 255 255
0.118595 1.87985 5.20853 255 255 255
0.785123 -0.868186 5.69266 255 255 255
0.59329 -0.977309 4.74445 255 255 255
-0.611888 -1.29552 4.36597 255 255 255
-0.729872 -0.548197 4.1578 255 255 255
0.545396 -0.00431738 5.41666 255 255 255
0.219791 -0.304518 5.04177 255 255 255
0.181917 1.09494 4.37006 255 255 255
-0.916501 0.73092 5.99728 255 255 255
-0.277194 -1.24738 4.314 255 255 255
-0.642662 1.44128 5.19109 255 255 255
-0.750147 1.38871 5.10145 255 255 255
0.150336 1.57746 4.6031 255 255 255
0.165433 1.59718 4.9459 255 255 255
-0.24919 -0.0582716 5.4284 255 255 255
0.258059 -1.58238 5.32428 255 255 255
-0.297143 -1.53469 5.49321 255 255 255
-0.140066 -0.65078 5.88875 255 255 255
0.0434776 0.720881 5.40243 255 255 255
0.0414704 0.547919 4.62135 255 255 255
-0.926489 1.19366 4.68163 255 255 255
0.196641 -0.502329 4.89709 255 255 255
-0.210138 0.826152 5.09597 255 255 255
-0.717553 1.83917 4.65142 255 255 255
0.335366 -0.0991224 4.44853 255 255 255
-0.570458 0.987637 4.38413 255 255 255
0.775605 -1.8235 5.17894 255 255 255
0.0940482 1.13592 5.14516 255 255 255
0.480993 -0.941971 5.94085 255 255 255
0.306976 1.09852 4.80026 255 255 255
-0.457202 1.87104 5.71439 255 255 255
0.357029 -0.355405 4.69425 255 255 255
-0.731948 -0.821929 5.04031 255 255 255
0.434477 -1.47991 5.81589 255 255 255
0.22515 1.39886 5.57904 255 255 255
-0.754023 1.99546 5.02054 255 255 255
-0.43364 -1.43664 4.88953 255 255 255
-0.267044 0.171408 4.97355 255 255 255
0.0601365 1.86678 4.01265 255 255 255
-0.0941937 -0.932258 4.10453 255 255 255
0.569862 -0.389484 5.55719 255 255 255
-0.342373 0.663963 4.76353 255 255 255
0.931668 0.651094 4.66688 255 255 255
-0.342181 -1.68211 5.09919 255 255 255
0.0755656 1.88155 4.94178 255 255 255
-0.260442 1.99097 4.30632 255 255 255
-0.221408 0.487019 4.40392 255 255 255
0.123294 -0.555338 4.32206 255 255 255
-0.0440311 -1.42927 5.57981 255 255 255
-0.536939 -1.9372 4.55556 255 255 255
-0.0941036 1.9021 4.97667 255 255 255
-0.71585 0.0527849 4.80606 255 255 255
0.684579 1.38361 4.31905 255 255 255
0.427502 -1.12411 4.23197 255 255 255
0.622097 -0.0876752 5.2192 255 255 255
0.15884 0.533794 4.38174 255 255 255
0.698056 -0.473481 5.65594 255 255 255
-0.899164 0.271815 5.91625 255 255 255
-0.63351 -0.859908 5.83617 255 255 255
0.786259 0.398915 5.28544 255 255 255
0.436149 -0.928092 4.91333 255 255 255
-0.552564 -1.26097 4.1557 255 255 255
-0.672181 -0.0510666 4.74294 255 255 255
0.642295 1.52169 4.45553 255 255 255
0.807743 -1.70888 5.23235 255 255 255
-0.260383 -0.825665 5.14542 255 255 255
0.0453965 -0.295008 4.18639 255 255 255
-0.191867 0.567374 4.03449 255 255 255
0.436556 0.3401 5.18969 255 255 255
0.924976 -1.08748 5.69456 255 255 255
0.766785 -1.42189 5.43274 255 255 255
-0.270922 -0.0251879 4.6903 255 255 255
0.975495 -0.00672205 4.92986 255 255 255
0.438833 1.96853 5.62766 255 255 255
-0.82248 1.60266 4.73244 255 255 255
-0.282344 -0.549128 4.57094 255 255 255
0.988205 -1.26657 5.50035 255 255 255
-0.675326 0.515361 4.6855 255 255 255
0.712141 -0.587001 5.21748 255 255 255
0.615981 1.02509 4.89516 255 255 255
-0.369699 -1.79544 4.57924 255 255 255
0.714185 -1.51823 4.5836 255 255 255
-0.0966032 0.488126 5.12346 255 255 255
-0.177895 -1.57853 5.09763 255 255 255
0.133411 0.333035 5.9452 255 255 255
0.882378 -1.70952 5.4321 255 255 255
-0.321496 0.121324 5.92566 255 255 255
0.127882 0.357193 4.08911 255 255 255
-0.357527 1.17919 4.79844 255 255 255
-0.827246 -0.474824 5.51549 255 255 255
0.447772 -0.652932 5.17567 255 255 255
-0.435352 1.62732 5.58281 255 255 255
0.33536 -1.59272 5.03661 255 255 255
-0.987822 0.194917 5.39369 255 255 255
0.159595 0.0206288 5.78546 255 255 255
0.705522 -0.847924 5.25015 255 255 255
0.403343 -1.95889 4.19897 255 255 255
-0.155835 1.69245 5.47837 255 255 255
0.684871 0.565754 5.03082 255 255 255
-0.898563 0.506181 4.87869 255 255 255
-0.536486 1.2674 4.58299 255 255 255
-0.901028 1.83648 4.05946 255 255 255
0.572668 1.49712 4.41655 255 255 255
-0.0156041 0.628403 4.97013 255 255 255
0.883587 -1.01159 4.31671 255 255 255
-0.230767 -0.310768 5.87859 255 255 255
0.391129 -0.685496 4.31173 255 255 255
-0.979086 -0.94428 4.96468 255 255 255
-0.875285 -0.87341 5.90821 255 255 255
-0.841534 -1.07581 4.79518 255 255 255
-0.279928 1.98721 4.0209 255 255 255
-0.00784432 -0.526082 5.23643 255 255 255
-0.479997 -1.58308 4.71948 255 255 255
-0.921311 -0.458716 4.86168 255 255 255
-0.712125 -1.9521 5.90228 255 255 255
-0.74066 0.438405 5.12025 255 255 255
-0.140581 -0.379951 5.20304 255 255 255
-0.712525 -0.732179 5.59905 255 255 255
0.305342 -1.60544 5.01562 255 255 255
0.607205 -1.05589 4.90505 255 255 255
-0.363868 1.6289 4.62338 255 255 255
-0.777534 -0.0917812 5.25128 255 255 255
-0.183905 0.674871 5.9991 255 255 255
-0.339881 1.29947 4.31497 255 255 255
-0.443161 0.847922 4.9712 255 255 255
-0.133926 1.13915 4.34076 255 255 255
0.930712 1.09685 5.38956 255 255 255
-0.452823 1.58005 5.77695 255 255 255
-0.33604 -0.26942 5.77108 255 255 255
0.478071 0.195731 5.0118 255 255 255
-0.0244231 0.851661 5.51482 255 255 255
0.751784 -0.307997 4.38921 255 255 255
0.58086 -0.849662 5.15316 255 255 255
0.479162 1.5708 4.22362 255 255 255
-0.161915 -1.5152 5.86252 255 255 255
0.795129 1.33449 5.8481 255 255 255
-0.84927 -0.529271 5.60939 255 255 255
0.903073 0.915133 4.21255 255 255 255
-0.585429 -1.41091 5.1194 255 255 255
0.402846 -1.23425 4.12613 255 255 255
0.687636 -1.94423 4.48504 255 255 255
-0.700868 0.977131 4.20399 255 255 255
0.545912 1.86315 5.53826 255 255 255
0.0924635 0.804761 4.64818 255 255 255
-0.904411 0.886844 4.57584 255 255 255
0.0395103 -1.20716 4.83649 255 255 255
-0.00682836 -1.53742 5.66289 255 255 255
0.277849 1.37146 5.62296 255 255 255
0.169747 -0.926679 4.01315 255 255 255
-0.9891 -0.311777 5.49715 255 255 255
0.395344 -1.78933 4.60236 255 255 255
-0.593845 -0.753881 4.76581 255 255 255
0.760434 0.196131 4.59136 255 255 255
0.99417 0.167842 4.57221 255 255 255
-0.938946 -0.174499 4.16485 255 255 255
0.764141 -0.210326 5.33601 255 255 255
-0.0989863 1.06565 5.58896 255 255 255
-0.427553 0.724602 4.50724 255 255 255
0.199356 -0.520263 5.50533 255 255 255
0.092304 -0.383507 5.31993 255 255 255
-0.512176 -1.73881 5.71426 255 255 255
-0.210268 0.79621 4.37376 255 255 255
0.787863 1.27475 5.33792 255 255 255
-0.283485 -1.99894 4.82349 255 255 255
-0.370967 -0.27119 4.37893 255 255 255
-0.231606 -0.781241 4.87598 255 255 255
0.323592 0.445893 4.77117 255 255 255
0.672972 0.778998 5.47347 255 255 255
0.0945172 -1.19777 4.27518 255 255 255
0.48869 0.503996 4.91169 255 255 255
-0.386998 1.93872 5.64262 255 255 255
-0.137957 1.55122 5.29878 255 255 255
0.469312 0.291863 4.28992 255 255 255
0.217431 0.502688 4.37564 255 255 255
0.539893 -0.683917 4.2506 255 255 255
0.484821 0.277327 5.42092 255 255 255
0.203279 0.979366 5.64855 255 255 255
0.402479 -0.815581 4.26744 255 255 255
0.666915 -0.495151 5.67561 255 255 255
0.0411517 1.56986 5.50301 255 255 255
-0.256686 1.44266 5.16733 255 255 255
-0.962821 -1.8959 5.28466 255 255 255
-0.192757 1.91318 4.99976 255 255 255
0.498957 0.631805 5.28718 255 255 255
-0.980464 -1.20079 5.31714 255 255 255
0.551212 -1.13066 5.27498 255 255 255
-0.486484 -0.727829 4.17581 255 255 255
-0.794276 0.258119 4.68651 255 255 255
0.740242 1.40541 5.6514 255 255 255
-0.440363 -0.20638 5.40946 255 255 255
0.430436 1.94113 5.53548 255 255 255
-0.170826 0.405252 4.77048 255 255 255
0.7349 0.413043 4.22135 255 255 255
-0.243093 -1.6955 4.1278 255 255 255
0.418161 1.47862 5.90188 255 255 255
0.928433 0.0930547 4.2918 255 255 255
0.598307 -0.83776 4.18354 255 255 255
0.461075 0.642002 4.39086 255 255 255
-0.892476 -1.00136 4.95512 255 255 255
0.240399 -1.34843 5.8741 255 255 255
0.46352 0.163677 4.53672 255 255 255
-0.263765 -1.71188 4.86978 255 255 255
-0.895891 1.94784 5.77688 255 255 255
0.297831 1.52774 4.01861 255 255 255
-0.612266 0.479185 5.25202 255 255 255
0.752019 1.69079 5.48727 255 255 255
-0.422603 -1.32609 4.17709 255 255 255
0.903062 0.721674 4.66385 255 255 255
0.199241 0.307269 4.08407 255 255 255
-0.855907 1.58863 5.32285 255 255 255
0.801549 1.61633 5.55012 255 255 255
0.321841 -0.651404 5.4878 255 255 255
-0.811143 -1.95092 4.10536 255 255 255
0.172904 -0.192546 5.1148 255 255 255
0.340231 -1.46865 4.3157 255 255 255
-0.632188 0.926684 4.18001 255 255 255
0.0687793 -1.852 4.95121 255 255 255
0.301101 1.52357 5.09722 255 255 255
0.367627 1.57479 5.70544 255 255 255
0.00380673 -1.23081 4.09269 255 255 255
0.691346 0.830986 5.21783 255 255 255
-0.851734 -1.19558 4.04399 255 255 255
-0.827841 -1.48023 5.3787 255 255 255
-0.928907 0.067949 5.78059 255 255 255
0.603548 -0.959585 5.20955 255 255 255
0.450728 1.06211 5.67272 255 255 255
-0.361455 1.10136 5.40836 255 255 255
-0.700552 -0.355379 4.62703 255 255 255
0.671336 -1.67443 5.32735 255 255 255
-0.723127 1.08573 5.36396 255 255 255
0.743649 -0.620333 4.73473 255 255 255
-0.577478 1.99387 5.68782 255 255 255
-0.801974 -0.0421646 5.16028 255 255 255
0.118435 -1.3432 5.41476 255 255 255
0.289541 -1.88561 4.89694 255 255 255
0.857173 0.574533 4.82588 255 255 255
-0.27096 0.252318 4.1812 255 255 255
-0.245174 0.310134 5.83959 255 255 255
0.167077 0.197118 4.82506 255 255 255
0.935911 -0.332224 4.66257 255 255 255
-0.0311067 0.689124 5.49346 255 255 255
0.979038 -0.668995 5.32325 255 255 255
0.0209154 1.67437 5.43536 255 255 255
0.357162 -0.161264 4.51404 255 255 255
-0.212403 0.874231 4.89228 255 255 255
0.656362 0.477717 5.72423 255 255 255
0.346914 0.0253335 4.32619 255 255 255
-0.0495388 -1.61235 5.24574 255 255 255
0.801306 -1.17702 5.9174 255 255 255
-0.626261 0.762613 4.85572 255 255 255
0.645684 -1.02432 4.36454 255 255 255
0.0306058 -0.0308531 4.41084 255 255 255
-0.234646 -0.789596 5.77757 255 255 255
0.00912364 -0.415341 5.24339 255 255 255
-0.654877 0.962835 5.21841 255 255 255
-0.673477 -1.21376 4.53773 255 255 255
-0.910766 -0.412726 5.15996 255 255 255
-0.916185 -0.168417 5.4199 255 255 255
-0.306717 1.87202 5.20326 255 255 255
0.773777 0.415308 5.79235 255 255 255
0.042072 -0.529964 4.9329 255 255 255
0.755183 1.03063 5.48957 255 255 255
0.729842 -1.8016 4.5558 255 255 255
0.560669 -0.692264 5.41869 255 255 255
0.0748583 -1.27136 5.48888 255 255 255
0.406994 -1.20284 4.63239 255 255 255
0.0358306 1.46712 5.57379 255 255 255
-0.83459 -1.24291 5.68838 255 255 255
-0.796104 0.177912 4.30283 255 255 255
0.903816 -0.144522 5.25769 255 255 255
0.290069 0.403885 5.01278 255 255 255
0.980936 -0.844661 4.72471 255 255 255
0.143903 0.536963 5.75195 255 255 255
-0.518757 -1.61282 4.3692 255 255 255
0.677448 1.43999 5.14982 255 255 255
0.54934 -1.19448 4.14671 255 255 255
0.553269 -1.38769 4.26622 255 255 255
0.651392 0.00957013 4.63777 255 255 255
-0.316412 -1.36338 4.82105 255 255 255
0.274864 -0.440337 4.35722 255 255 255
0.369446 0.528626 5.87267 255 255 255
0.2047 0.759398 4.50405 255 255 255
-0.159796 0.618142 5.36972 255 255 255
-0.894565 0.792012 5.52509 255 255 255
0.563714 1.44731 5.40731 255 255 255
0.390852 1.03557 4.38659 255 255 255
0.461419 -1.52273 5.59272 255 255 255
-0.6696 -0.900486 4.55947 255 255 255
-0.0931016 -1.73367 4.66789 255 255 255
0.0594653 -0.753272 4.84034 255 255 255
0.589051 1.87031 4.50646 255 255 255
-0.811335 -0.679803 5.77903 255 255 255
0.0317849 -0.088067 4.03834 255 255 255
-0.136857 1.12596 4.19924 255 255 255
-0.352277 0.108873 5.88225 255 255 255
-0.523257 0.220518 4.36171 255 255 255
-0.476399 0.549133 4.22049 255 255 255
0.79122 -1.82453 5.80202 255 255 255
0.895636 -0.915729 4.02108 255 255 255
0.353764 -0.558207 5.07049 255 255 255
0.662571 -0.628591 5.70196 255 255 255
0.584669 -1.61498 4.06243 255 255 255
-0.34879 -1.42728 5.20612 255 255 255
-0.0886666 -1.97688 5.42724 255 255 255
-0.0515278 0.9204 4.22131 255 255 255
-0.389337 -1.28242 5.11598 255 255 255
0.100482 1.93547 4.9774 255 255 255
-0.718712 -1.15179 5.7589 255 255 255
-0.627489 1.57733 5.88639 255 255 255
0.300172 1.33911 5.45302 255 255 255
0.951759 -1.40163 4.50803 255 255 255
0.852625 1.42457 4.85883 255 255 255
-0.697442 0.312965 5.05583 255 255 255
0.936283 0.0327945 5.72183 255 255 255
0.815493 -1.76735 4.11247 255 255 255
0.417756 1.17914 4.10017 255 255 255
-0.183119 -0.980139 4.42426 255 255 255
-0.692559 1.28502 4.45594 255 255 255
0.296434 1.2805 4.11622 255 255 255
0.461177 0.556824 5.0487 255 255 255
0.374637 1.92937 4.27607 255 255 255
-0.813214 -0.585301 5.44331 255 255 255
0.910505 -0.61899 4.42577 255 255 255
0.466271 0.700418 5.76998 255 255 255
-0.485132 1.6593 4.51131 255 255 255
-0.749926 -0.444134 5.02293 255 255 255
0.459529 -1.12094 5.62075 255 255 255
0.6861 -0.0778371 4.69432 255 255 255
-0.758395 -0.412405 4.0983 255 255 255
0.244492 -0.217682 4.29642 255 255 255
-0.18595 -0.590399 4.47765 255 255 255
-0.249626 -0.619043 5.16992 255 255 255
-0.625069 0.558836 5.18158 255 255 255
0.817336 1.26578 5.3029 255 255 255
-0.617593 -0.222054 4.57035 255 255 255
-0.621456 0.91766 5.72988 255 255 255
0.586585 -1.90764 5.6513 255 255 255
-0.0230006 -0.415533 4.52404 255 255 255
-0.332321 1.35763 5.54822 255 255 255
0.649771 1.95372 4.08167 255 255 255
0.245198 0.0684608 4.18528 255 255 255
0.935902 0.954019 5.52727 255 255 255
-0.168171 0.421026 4.73681 255 255 255
0.271198 -1.92646 4.2771 255 255 255
-0.98788 1.31424 5.84841 255 255 255
-0.179751 0.244876 5.53833 255 255 255
-0.513375 -1.93317 4.90576 255 255 255
0.958476 -1.0951 4.34979 255 255 255
0.293574 0.159039 5.75565 255 255 255
0.442234 1.82211 5.42012 255 255 255
0.794748 -0.349799 4.41979 255 255 255
-0.238167 -1.36548 4.55072 255 255 255
-0.193125 -1.42073 4.6238 255 255 255
-0.124454 -1.44301 5.51164 255 255 255
-0.605808 0.582811 5.32163 255 255 255
0.111663 -1.2464 4.15158 255 255 255
-0.951236 -1.05657 4.29948 255 255 255
-0.22917 -0.107631 4.92027 255 255 255
0.826743 -0.0432062 4.18368 255 255 255
-0.251046 -1.99243 5.32426 255 255 255
0.397069 -0.140493 4.28311 255 255 255
0.530872 -0.980052 4.46471 255 255 255
-0.539014 1.76058 5.5502 255 255 255
0.286446 0.203317 4.63145 255 255 255
0.502984 0.377984 4.24482 255 255 255
-0.266442 -0.686706 4.99267 255 255 255
0.00966658 1.47234 5.96385 255 255 255
-0.92161 -1.94499 4.9536 255 255 255
0.281642 -0.60958 5.33018 255 255 255
-0.845869 1.33665 4.95921 255 255 255
-0.538131 0.458253 4.87543 255 255 255
-0.0915836 0.510931 4.8169 255 255 255
0.945581 -0.383543 4.41093 255 255 255
0.1277 1.43692 4.5149 255 255 255
-0.77191 1.57136 4.34857 255 255 255
0.40608 -0.706989 4.07326 255 255 255
0.362242 0.0189191 5.57453 255 255 255
-0.437431 1.65462 5.11259 255 255 255
-0.206806 1.70838 5.26787 255 255 255
0.988342 -0.919686 4.68511 255 255 255
0.181045 0.267065 5.51625 255 255 255
0.573369 -0.445428 4.62675 255 255 255
0.452262 1.038 4.33579 255 255 255
-0.885731 0.57139 4.91647 255 255 255
-0.718432 -0.83573 5.7687 255 255 255
0.836418 -1.79982 4.62968 255 255 255
-0.0300427 -0.144469 4.82201 255 255 255
-0.894812 1.05585 5.29744 255 255 255
0.503257 -1.5859 5.07564 255 255 255
0.648267 1.74152 4.25157 255 255 255
-0.0868887 -0.652294 5.2707 255 255 255
0.587517 -0.00704724 5.55286 255 255 255
-0.81203 -0.603255 5.15645 255 255 255
0.275356 -0.714789 5.45628 255 255 255
-0.979575 -0.578798 4.91623 255 255 255
0.442603 0.0813503 4.42752 255 255 255
0.3384 -1.65803 5.45052 255 255 255
-0.480214 -0.463034 4.74207 255 255 255
-0.0745374 1.0585 4.52403 255 255 255
0.427211 1.80134 4.29696 255 255 255
-0.902891 1.23053 5.4652 255 255 255
-0.0213311 1.33394 4.21965 255 255 255
-0.527115 0.156033 5.56865 255 255 255
0.0963793 1.35943 5.35179 255 255 255
0.206767 0.977329 5.13271 255 255 255
0.928253 1.85843 4.92064 255 255 255
0.442121 0.865029 4.91617 255 255 255
-0.538061 -1.33083 4.55242 255 255 255
0.853131 -0.708157 4.98638 255 255 255
