ply
format ascii 1.0
element vertex 504
property float x
property float y
property float z
property uchar red
property uchar green
property uchar blue
end_header
-0 -0 -0 0 0 255
-0.907994 -0.208911 0.0875767 0 0 255
-0.351784 -0.167131 0.0151916 0 0 255
-0.542682 -0.515679 0.0563606 0 0 255
-0.285849 -0.691987 4.28349 255 255 255
-0.267237 -1.50351 4.21169 255 255 255
-0.975108 1.48526 5.13158 255 255 255
0.398594 -1.6312 5.4014 255 255 255
-0.0875579 -0.353357 4.6085 255 255 255
-0.596933 0.17879 5.3835 255 255 255
0.905175 -0.129861 4.89299 255 255 255
-0.595585 -0.850044 4.11338 255 255 255
0.392387 -1.47549 4.86824 255 255 255
-0.213391 0.0914973 4.02385 255 255 255
-0.875394 1.97301 5.48849 255 255 255
-0.847144 -0.843534 4.62587 255 255 255
0.416595 0.199018 5.75093 255 255 255
-0.78619 -1.94423 4.87685 255 255 255
-0.717419 1.21657 4.05591 255 255 255
-0.294467 0.256002 5.62585 255 255 255
0.884826 -0.422067 4.87714 255 255 255
0.686649 0.502819 4.67175 255 255 255
-0.947822 -0.00961656 5.33514 255 255 255
0.939191 -1.28036 5.7651 255 255 255
0.634447 0.743577 5.89649 255 255 255
0.559212 0.901282 5.32157 255 255 255
-0.991404 1.29597 4.4078 255 255 255
0.987592 0.275489 4.18437 255 255 255
0.479539 -1.98807 4.62143 255 255 255
-0.986869 1.27103 4.65947 255 255 255
-0.557769 -1.08995 5.67593 255 255 255
-0.0798113 -0.200041 5.28525 255 255 255
-0.482838 1.13583 5.50856 255 255 255
-0.0368596 -1.25964 5.5813 255 255 255
-0.127745 1.2559 5.21788 255 255 255
0.757016 1.95962 4.56872 255 255 255
0.0702097 -0.672402 4.36009 255 255 255
-0.273725 -0.982109 5.50832 255 255 255
0.810171 -1.65277 4.76915 255 255 255
-0.026158 -0.739117 4.01192 255 255 255
-0.694579 1.83837 5.5293 255 255 255
-0.665748 -1.15532 5.93671 255 255 255
-0.365251 1.00815 4.43744 255 255 255
-0.457959 1.09816 5.82154 255 255 255
0.695158 1.82879 4.21016 255 255 255
0.256574 -1.17692 4.29152 255 255 255
-0.941208 1.23988 4.06599 255 255 255
0.924002 -0.101947 4.34786 255 255 255
-0.990638 1.26828 5.63585 255 255 255
0.410619 -0.719022 4.4908 255 255 255
0.993116 1.20828 5.00847 255 255 255
0.928284 -1.10238 5.91409 255 255 255
-0.161937 -1.26336 5.1774 255 255 255
0.272701 -0.521753 5.90364 255 255 255
0.484963 1.96128 5.48946 255 255 255
-0.427308 1.18908 5.44117 255 255 255
0.875311 1.61492 4.28 255 255 255
-0.982229 -0.72041 5.09263 255 255 255
0.464662 0.196845 4.56152 255 255 255
-0.782732 0.98388 5.11217 255 255 255
0.54375 -1.9192 4.30814 255 255 255
-0.183901 0.99374 5.99477 255 255 255
0.820406 0.608086 4.43629 255 255 255
-0.264572 1.92774 5.36044 255 255 255
-0.571522 1.09888 4.85935 255 255 255
-0.745749 -0.400168 4.36746 255 255 255
-0.250304 -0.798138 5.48589 255 255 255
-0.459038 1.03486 4.07621 255 255 255
0.239271 0.33179 4.53929 255 255 255
0.967123 -0.217368 5.4209 255 255 255
0.153541 -0.62756 5.47698 255 255 255
0.510024 1.99661 5.86274 255 255 255
0.768077 0.567457 5.0772 255 255 255
-0.580303 1.00051 4.67356 255 255 255
-0.169559 -1.86583 4.02771 255 255 255
-0.071601 -1.90579 5.1459 255 255 255
0.667185 0.156266 4.39281 255 255 255
0.0896898 1.68425 4.41931 255 255 255
0.67455 -1.78779 4.18055 255 255 255
0.484506 1.79106 4.3476 255 255 255
0.971901 0.15053 5.28827 255 255 255
0.512312 0.295653 5.93451 255 255 255
0.0407023 1.53488 5.85068 255 255 255
-0.859699 1.21775 5.64319 255 255 255
-0.398642 0.882984 4.60381 255 255 255
-0.809883 -0.148777 5.82594 255 255 255
-0.665236 1.11145 4.45441 255 255 255
-0.722168 -0.996895 4.8996 255 255 255
0.665603 -1.79627 4.44281 255 255 255
-0.982924 0.0481367 5.84128 255 255 255
0.37156 -1.67372 5.72061 255 255 255
-0.495918 1.95258 5.31975 255 255 255
-0.909351 -0.953208 5.28215 255 255 255
0.824179 -1.36497 5.34558 255 255 255
-0.333223 1.28677 4.79235 255 255 255
0.303055 1.27166 4.92852 255 255 255
-0.212318 0.674827 4.54633 255 255 255
-0.111973 -1.2269 5.31529 255 255 255
0.41389 0.401962 4.28472 255 255 255
-0.472249 -1.73052 5.55441 255 255 255
-0.914517 1.89172 5.45451 255 255 255
0.584044 1.5144 5.62526 255 255 255
-0.0777248 -0.494682 4.30771 255 255 255
-0.795227 -1.32655 4.8855 255 255 255
-0.599484 1.24788 4.4882 255 255 255
0.773609 0.0590608 5.07687 255 255 255
0.515966 1.25515 5.80359 255 255 255
0.0623851 -0.639543 4.42088 255 255 255
0.0546136 0.245139 5.68044 255 255 255
-0.706427 -1.97485 4.40057 255 255 255
0.912784 1.48222 4.37415 255 255 255
0.0360337 -1.0296 4.04526 255 255 255
-0.492162 -0.622382 4.48344 255 255 255
-0.727571 0.227042 4.52381 255 255 255
-0.270501 0.694407 4.14844 255 255 255
-0.525309 -1.91647 5.85705 255 255 255
0.266523 -1.8651 5.31149 255 255 255
0.11499 0.829811 5.62672 255 255 255
-0.000336113 -0.767901 4.79915 255 255 255
0.659334 0.596832 5.19998 255 255 255
0.923716 -0.193642 5.37073 255 255 255
-0.392943 0.0370875 4.46959 255 255 255
-0.143545 0.890628 4.79156 255 255 255
-0.831197 -1.91319 5.75123 255 255 255
-0.179269 0.452418 5.61857 255 255 255
0.349678 -0.084603 4.95023 255 255 255
0.12255 0.691051 5.7208 255 255 255
-0.0312007 -1.75895 5.49644 255 255 255
-0.104451 -0.454993 4.58359 255 255 255
-0.0330652 -0.877629 5.37667 255 255 255
-0.367442 1.86316 5.36835 255 255 255
-0.714953 1.54907 5.45234 255 255 255
-0.943033 -1.32905 4.83694 255 255 255
-0.906417 -0.0172264 4.21314 255 255 255
-0.172371 -0.789791 4.51478 255 255 255
-0.38505 1.64633 5.02826 255 255 255
-0.90988 1.38201 5.45478 255 255 255
-0.741121 1.50763 5.15693 255 255 255
-0.463543 0.801608 4.24415 255 255 255
-0.296803 -0.1888 4.48743 255 255 255
-0.685338 1.4497 5.5012 255 255 255
0.0231658 1.59654 4.59816 255 255 255
0.299398 1.19923 4.04883 255 255 255
0.709092 0.463775 4.75685 255 255 255
0.835568 -0.630631 5.74043 255 255 255
-0.99897 -1.56535 4.57517 255 255 255
-0.590612 -0.833173 4.08159 255 255 255
0.302564 -1.27849 5.02194 255 255 255
-0.292555 -0.947653 4.94926 255 255 255
-0.700874 -1.37003 5.61543 255 255 255
-0.110122 -0.721979 5.73542 255 255 255
0.748375 -0.898742 5.87908 255 255 255
0.252295 -0.278512 5.30119 255 255 255
0.991605 -0.160835 4.64445 255 255 255
0.871608 -0.633982 5.43885 255 255 255
0.00513165 1.22488 4.71585 255 255 255
-0.963781 -0.348265 5.40772 255 255 255
-0.144261 1.81626 5.82664 255 255 255
-0.72479 -1.65206 4.95836 255 255 255
-0.956473 -0.0271202 4.02525 255 255 255
0.559215 0.957218 4.36025 255 255 255
0.132147 -1.48924 4.26361 255 255 255
0.505757 0.0528402 4.82758 255 255 255
0.371174 0.917127 5.18391 255 255 255
0.671775 -1.1565 5.28519 255 255 255
-0.555161 0.926692 5.23727 255 255 255
-0.757161 -0.258893 5.71181 255 255 255
0.425901 -0.167654 4.90891 255 255 255
0.263424 1.23949 5.55083 255 255 255
-0.253918 1.2421 4.3508 255 255 255
0.789929 1.52583 5.71828 255 255 255
-0.516366 -0.378303 4.32724 255 255 255
-0.922059 -0.513596 4.65383 255 255 255
0.0791224 -1.47979 4.52214 255 255 255
-0.440992 0.907048 4.09247 255 255 255
0.164745 0.54944 5.17346 255 255 255
-0.660288 -0.42889 4.55232 255 255 255
-0.595393 0.117885 4.61282 255 255 255
0.960833 0.24984 5.86961 255 255 255
-0.0456086 -1.37224 4.03058 255 255 255
-0.542594 -1.22312 4.79009 255 255 255
0.372341 1.22235 5.87756 255 255 255
0.794284 -0.634533 5.91751 255 255 255
-0.983387 1.40401 5.08823 255 255 255
-0.536723 0.278737 5.15698 255 255 255
-0.990779 -0.712733 4.76911 255 255 255
0.891317 1.29369 5.65175 255 255 255
-0.372555 0.731577 4.61261 255 255 255
-0.491741 1.57902 4.05578 255 255 255
-0.560417 -1.72198 5.38013 255 255 255
0.977235 -0.715827 4.20999 255 255 255
-0.213081 0.665422 4.13133 255 255 255
-0.631459 1.45807 5.06863 255 255 255
0.334927 -0.435502 4.63103 255 255 255
0.631464 -0.363367 4.44578 255 255 255
-0.422056 -1.21577 5.72073 255 255 255
0.272421 1.85076 4.49483 255 255 255
0.10659 -0.534825 5.32546 255 255 255
0.0167373 0.097327 4.3817 255 255 255
0.954535 -1.85833 5.57875 255 255 255
0.478955 1.32074 4.38575 255 255 255
-0.638192 1.44144 5.44959 255 255 255
-0.546931 -1.53787 4.54622 255 255 255
0.377984 0.846034 5.30862 255 255 255
-0.479878 0.0506423 5.81882 255 255 255
-0.907495 -0.190822 4.56162 255 255 255
-0.997542 -1.06784 4.73064 255 255 255
0.265676 1.55159 4.08618 255 255 255
-0.928148 -0.135382 5.91547 255 255 255
0.128462 0.424234 4.01158 255 255 255
0.848536 0.806992 4.3418 255 255 255
0.420071 1.76841 4.91216 255 255 255
-0.994179 -0.796147 4.01068 255 255 255
-0.415545 -1.02865 4.49731 255 255 255
0.486189 -0.0107855 4.40142 255 255 255
-0.0650155 1.58086 5.11591 255 255 255
0.722865 1.24131 4.88186 255 255 255
-0.130095 1.55437 4.82004 255 255 255
-0.55442 -1.09273 5.71954 255 255 255
-0.867806 -1.12049 4.58029 255 255 255
-0.753972 -0.254985 4.31261 255 255 255
-0.640406 1.74432 4.13385 255 255 255
0.459568 0.754176 5.68239 255 255 255
0.513469 -0.593503 4.00521 255 255 255
-0.181314 1.55666 5.39853 255 255 255
0.921156 -0.884049 4.20856 255 255 255
-0.253039 -1.44099 4.23001 255 255 255
-0.213985 -0.0389385 4.11428 255 255 255
-0.980023 -0.452786 5.0752 255 255 255
-0.0160437 -0.349405 4.49967 255 255 255
0.71853 -1.70914 5.36959 255 255 255
-0.715063 0.252313 5.56901 255 255 255
0.252145 -0.414043 4.0705 255 255 255
0.73838 0.56272 4.10425 255 255 255
0.534918 -1.419 4.93616 255 255 255
-0.153797 -1.21698 5.30586 255 255 255
0.505299 -0.792929 4.81121 255 255 255
-0.835717 -1.25874 5.61115 255 255 255
0.565428 0.950877 4.1539 255 255 255
0.780538 1.64787 5.75094 255 255 255
0.877126 -0.590548 4.81544 255 255 255
-0.131962 -1.14836 5.73757 255 255 255
-0.502578 1.32882 5.22669 255 255 255
-0.0188892 0.929253 4.43918 255 255 255
-0.404552 -0.170317 4.55214 255 255 255
-0.229687 1.01733 5.11539 255 255 255
-0.280217 1.11937 4.46173 255 255 255
0.313408 1.47271 5.62627 255 255 255
0.503837 -0.347919 4.99009 255 255 255
-0.32878 -0.88701 5.03924 255 255 255
0.634016 1.34639 4.17944 255 255 255
-0.214692 1.95746 4.43077 255 255 255
0.20889 1.49898 5.40606 255 255 255
-0.639375 1.58684 4.07703 255 255 255
0.475114 -1.18468 4.59457 255 255 255
0.185127 0.530067 5.17065 255 255 255
-0.764351 -0.400515 4.40832 255 255 255
-0.663882 0.511334 4.5939 255 255 255
-0.00684042 -1.0971 4.6769 255 255 255
0.108258 0.554566 4.821 255 255 255
0.200278 -0.0464769 5.71706 255 255 255
-0.199478 -0.84605 4.53123 255 255 255
-0.946749 1.15902 5.83368 255 255 255
0.530628 -1.37031 4.37595 255 255 255
-0.379126 -1.01342 5.45541 255 255 255
0.893902 0.792786 4.2238 255 255 255
0.342449 -0.864316 5.1421 255 255 255
-0.548307 1.65988 5.96501 255 255 255
-0.790126 -1.98457 5.60154 255 255 255
-0.23605 -0.327763 5.47985 255 255 255
0.466395 -1.6562 5.07236 255 255 255
-0.744676 0.250612 5.40752 255 255 255
0.782921 0.901362 5.01415 255 255 255
0.0346173 1.89185 5.49895 255 255 255
0.622717 0.591407 4.55031 255 255 255
-0.221461 -0.0370912 5.00021 255 255 255
-0.30942 -0.146049 5.90837 255 255 255
0.282312 -1.78535 4.35804 255 255 255
0.787692 -0.220265 4.04001 255 255 255
0.000828582 0.297475 5.86747 255 255 255
-0.620557 0.0596941 4.36398 255 255 255
-0.837289 1.14265 5.96261 255 255 255
-0.021564 -0.0965176 4.39434 255 255 255
0.430563 0.0717865 5.13946 255 255 255
-0.957655 0.646721 5.81421 255 255 255
0.292347 0.50788 5.09537 255 255 255
-0.308033 -0.407402 5.54744 255 255 255
-0.0584072 1.69163 4.16861 255 255 255
0.585518 -0.774298 4.45271 255 255 255
0.39045 -1.74845 4.0986 255 255 255
0.270186 0.655873 4.22704 255 255 255
-0.65833 1.35247 5.65692 255 255 255
0.105983 0.544814 4.37012 255 255 255
-0.308592 -1.61229 4.16525 255 255 255
0.919352 -1.38144 4.37446 255 255 255
-0.0089544 -0.431741 5.73798 255 255 255
-0.921295 0.982707 4.39849 255 255 255
-0.740071 -1.0271 4.00171 255 255 255
-0.817552 -1.0951 4.8039 255 255 255
-0.403614 1.03183 4.03201 255 255 255
0.380889 -0.950177 4.33008 255 255 255
0.841123 1.6434 4.97112 255 255 255
-0.031091 1.63451 4.83803 255 255 255
0.58066 -0.740503 5.05153 255 255 255
-0.892709 1.14767 4.16401 255 255 255
0.685255 1.85114 4.22279 255 255 255
0.495106 -0.228873 5.78748 255 255 255
-0.182187 -1.81184 5.16206 255 255 255
-0.745076 -0.709284 4.23911 255 255 255
0.954543 0.274419 4.79039 255 255 255
0.816424 -0.0764678 5.26064 255 255 255
-0.995013 -1.05558 5.19065 255 255 255
0.137265 1.5125 4.4099 255 255 255
0.908679 1.33404 4.11996 255 255 255
0.364341 -0.143968 4.28709 255 255 255
0.489809 -0.274018 4.52536 255 255 255
0.0555362 -0.185625 5.97468 255 255 255
-0.437996 1.67383 4.66936 255 255 255
-0.553495 -1.91016 5.74848 255 255 255
0.716338 1.11409 5.64997 255 255 255
0.567019 0.403175 5.55953 255 255 255
0.594848 0.0151521 5.36892 255 255 255
-0.51736 1.63153 5.90548 255 255 255
0.233467 0.468348 4.08664 255 255 255
0.703907 1.03395 5.83639 255 255 255
-0.949581 0.174832 4.74975 255 255 255
-0.928321 -0.450708 5.70937 255 255 255
0.509165 -0.346376 4.77889 255 255 255
0.456372 0.424569 4.80073 255 255 255
0.822354 1.79628 4.11834 255 255 255
0.206902 0.604882 4.72616 255 255 255
-0.341556 -0.0318625 4.6806 255 255 255
0.330937 1.86766 5.85158 255 255 255
0.676387 -0.390299 5.04269 255 255 255
0.0784902 -1.65957 5.13506 255 255 255
-0.164427 0.0717159 5.68953 255 255 255
0.467683 1.30191 5.58598 255 255 255
0.173053 0.699404 5.94448 255 255 255
-0.144963 0.271832 4.09781 255 255 255
0.134643 -0.616946 4.61589 255 255 255
-0.34321 -0.552133 5.4807 255 255 255
-0.0517685 1.50669 4.12417 255 255 255
-0.455135 0.149361 5.49263 255 255 255
0.782303 -0.0912929 4.08808 255 255 255
-0.674217 1.97344 4.39264 255 255 255
0.386515 -0.173573 5.00494 255 255 255
0.340428 -1.58448 5.04395 255 255 255
0.607528 0.573685 4.02025 255 255 255
-0.947674 1.11698 5.07392 255 255 255
0.841522 1.52877 5.91272 255 255 255
-0.48483 -1.81486 5.08236 255 255 255
-0.189292 -1.39957 4.54965 255 255 255
-0.199773 0.744678 4.57846 255 255 255
-0.0599477 -0.950345 5.91314 255 255 255
0.939977 -0.986488 5.11613 255 255 255
-0.978164 0.512183 5.91476 255 255 255
0.446076 1.17381 5.17476 255 255 255
0.287344 -1.51643 4.31191 255 255 255
-0.779539 -1.99536 5.30924 255 255 255
0.485348 1.91255 4.48123 255 255 255
-0.576336 1.66161 4.47824 255 255 255
0.212967 -1.23785 4.84135 255 255 255
0.3273 1.32828 4.52469 255 255 255
-0.576376 1.50082 5.58928 255 255 255
0.707338 0.73872 5.56185 255 255 255
0.410718 -1.211 5.20163 255 255 255
0.143402 1.89178 4.5177 255 255 255
-0.732345 1.32184 4.55863 255 255 255
-0.620689 1.44751 5.83899 255 255 255
0.574174 0.327911 5.09236 255 255 255
-0.493148 -0.473518 5.4577 255 255 255
0.845108 1.59121 4.13652 255 255 255
0.257302 -1.90398 4.13106 255 255 255
0.904517 0.439336 5.15494 255 255 255
0.466511 -0.475129 5.77551 255 255 255
0.622075 -1.18937 5.89128 255 255 255
0.270404 1.91781 4.33908 255 255 255
0.877058 1.15803 4.16744 255 255 255
0.4393 0.598935 4.22747 255 255 255
0.205797 -0.981026 4.17816 255 255 255
-0.890653 -0.619128 4.48194 255 255 255
-0.455897 0.0812345 4.55465 255 255 255
0.00262109 -1.35081 4.45537 255 255 255
-0.822136 1.54402 5.14979 255 255 255
0.82106 1.14409 4.70225 255 255 255
-0.924147 -0.674593 4.46105 255 255 255
0.153539 0.414862 5.27188 255 255 255
-0.415455 0.186476 4.04402 255 255 255
-0.109757 -1.11767 4.14874 255 255 255
-0.767199 -0.664886 4.08703 255 255 255
-0.294329 -0.514732 5.30309 255 255 255
0.397987 -1.09206 5.17385 255 255 255
-0.61071 -0.506598 4.35771 255 255 255
-0.189966 -0.646276 5.06217 255 255 255
0.473757 -0.100605 4.57623 255 255 255
-0.798822 -0.819153 5.98564 255 255 255
0.470691 0.310265 5.74005 255 255 255
0.90901 -1.57142 4.6489 255 255 255
-0.112275 0.915266 5.11238 255 255 255
0.85857 1.78032 4.77898 255 255 255
0.677807 1.30426 5.25415 255 255 255
-0.0504743 -0.745822 4.16643 255 255 255
-0.408228 0.361282 4.20573 255 255 255
0.676195 -1.32983 4.31096 255 255 255
-0.382143 -1.71289 4.61752 255 255 255
-0.939436 -1.48768 5.7206 255 255 255
-0.673984 -0.261731 5.50409 255 255 255
-0.516119 -1.69905 5.95636 255 255 255
0.54293 0.134692 5.7388 255 255 255
-0.418752 -1.05244 4.16734 255 255 255
0.267242 1.86236 5.00184 255 255 255
0.864841 1.14383 5.79059 255 255 255
-0.855353 -0.903516 5.49977 255 255 255
0.504725 -0.438443 5.95827 255 255 255
0.267308 0.431828 4.28797 255 255 255
-0.81967 1.36385 4.08977 255 255 255
-0.896373 -0.93078 4.90758 255 255 255
0.243509 -1.90363 5.52018 255 255 255
0.634201 1.30784 5.53881 255 255 255
0.406661 -1.6705 5.38939 255 255 255
0.853224 1.55945 5.486 255 255 255
0.278659 0.131052 4.69038 255 255 255
0.158177 -1.5935 4.6421 255 255 255
0.436387 -0.838539 4.44521 255 255 255
0.148669 1.15972 5.50741 255 255 255
-0.65787 0.255436 4.88653 255 255 255
0.983897 -1.30126 4.91395 255 255 255
0.268193 1.38757 4.07694 255 255 255
-0.298408 1.61706 5.6042 255 255 255
-0.510538 1.86479 5.35726 255 255 255
0.103673 -0.37484 5.75947 255 255 255
0.838626 -0.750787 5.17956 255 255 255
-0.373729 -0.86585 5.40895 255 255 255
0.726686 0.357926 5.58962 255 255 255
0.108291 -0.369537 4.30573 255 255 255
0.0973104 1.83155 5.58876 255 255 255
0.686971 1.4892 4.85408 255 255 255
-0.418312 0.246898 4.72004 255 255 255
0.77172 1.1067 4.37637 255 255 255
0.734674 1.98506 5.51737 255 255 255
-0.183411 1.11079 4.24525 255 255 255
-0.365176 -1.8017 5.89582 255 255 255
0.641863 1.09473 5.51645 255 255 255
0.559305 0.619435 4.89646 255 255 255
-0.362188 -1.18855 5.77323 255 255 255
-0.515347 0.525445 5.78671 255 255 255
-0.118882 -1.3942 4.29803 255 255 255
0.169936 0.867327 4.81108 255 255 255
-0.970507 0.709732 5.65879 255 255 255
-0.29335 1.85671 4.73557 255 255 255
-0.28881 -0.863624 4.44443 255 255 255
-0.303221 -1.64159 4.4154 255 255 255
-0.741475 -1.74784 5.64086 255 255 255
0.418673 -0.316089 4.79129 255 255 255
0.407306 -1.05088 4.01018 255 255 255
0.324578 1.33125 4.66191 255 255 255
0.881503 -0.2794 4.1392 255 255 255
-0.495899 -1.77272 5.22142 255 255 255
0.581388 -0.796174 4.87584 255 255 255
-0.545492 0.173364 5.1183 255 255 255
-0.441592 -0.89173 5.73837 255 255 255
0.180305 -1.59072 4.76219 255 255 255
-0.585158 0.0112909 4.73094 255 255 255
0.670145 -0.536005 4.51609 255 255 255
0.18973 1.11837 5.28215 255 255 255
-0.619224 -0.835435 5.06584 255 255 255
-0.978969 -0.0341981 5.59362 255 255 255
0.400522 -0.565509 5.10081 255 255 255
-0.954356 -1.95269 4.98342 255 255 255
-0.242792 1.51873 5.64728 255 255 255
-0.448931 -1.10365 4.25344 255 255 255
0.0058951 -0.823297 5.03893 255 255 255
-0.305312 -0.455815 4.05858 255 255 255
-0.953075 -0.101601 4.43574 255 255 255
0.118443 -1.46371 4.76475 255 255 255
-0.563121 -0.282851 5.28032 255 255 255
-0.253649 0.962764 4.43599 255 255 255
0.126623 -0.448821 4.57966 255 255 255
0.597297 -0.763967 4.43241 255 255 255
0.0384196 -0.466389 4.2115 255 255 255
-0.364689 1.93882 5.37758 255 255 255
0.763276 0.812152 5.33445 255 255 255
-0.993166 -1.36403 4.19094 255 255 255
-0.930297 0.200977 5.38004 255 255 255
-0.554535 -1.6561 5.79521 255 255 255
0.175962 -0.779153 5.29715 255 255 255
-0.593399 -1.42133 5.36295 255 255 255
0.156393 -1.00913 4.8723 255 255 255
-0.890643 0.303262 5.47598 255 255 255
-0.482191 -1.80158 4.78145 255 255 255
0.640763 1.86427 5.36699 255 255 255
-0.105211 -0.215451 4.18238 255 255 255
-0.187947 1.57943 5.16642 255 255 255
-0.94016 0.492801 5.39998 255 255 255
-0.854677 0.507222 5.15294 255 255 255
0.683345 0.414791 5.84124 255 255 255
-0.0566152 0.0801966 5.21919 255 255 255
0.796749 -1.78022 5.64223 255 255 255
0.211515 1.70816 4.02567 255 255 255
0.665217 1.07044 4.01508 255 255 255
-0.272739 -1.70931 4.78911 255 255 255
-0.104578 -1.72187 5.97452 255 255 255
0.967127 0.123162 5.38225 255 255 255
-0.611375 0.472528 5.03057 255 255 255
