ply
format ascii 1.0
element vertex 504
property float x
property float y
property float z
property uchar red
property uchar green
property uchar blue
end_header
-0 -0 -0 0 0 255
-1.46478 -0.488877 -1.75557 0 0 255
0.119482 0.0824939 -1.99789 0 0 255
-0.659061 -0.760471 -1.89769 0 0 255
0.45154 0.532196 2.27147 255 255 255
0.262702 1.30822 2.69387 255 255 255
-0.529177 1.64834 2.82719 255 255 255
-0.793278 -0.615359 3.03625 255 255 255
0.356345 1.04668 3.38256 255 255 255
-0.351369 -0.778418 3.2226 255 255 255
-0.142007 1.06309 2.93333 255 255 255
-0.253397 1.78618 3.06814 255 255 255
-0.0417496 0.406101 3.1202 255 255 255
-0.277927 -0.698696 2.93376 255 255 255
-0.938864 1.09683 2.7038 255 255 255
-0.437041 0.653013 2.50419 255 255 255
-0.259742 1.24994 3.81954 255 255 255
-0.763724 -1.68596 2.01892 255 255 255
-0.233107 -0.252823 3.96388 255 255 255
0.793659 0.0787093 2.41208 255 255 255
0.470101 -0.227895 2.2071 255 255 255
0.900742 0.2452 2.71044 255 255 255
-0.463842 0.334544 2.06622 255 255 255
0.86831 0.581285 3.09133 255 255 255
-0.304144 -0.430095 3.1089 255 255 255
0.988525 -0.494974 2.31805 255 255 255
0.28109 -0.744913 3.82299 255 255 255
0.900737 -0.232027 3.92126 255 255 255
-0.815298 0.614753 3.73565 255 255 255
0.345577 1.67085 3.51189 255 255 255
0.886475 -0.136237 3.54682 255 255 255
-0.0950871 -1.18281 2.90116 255 255 255
0.481887 -1.39828 2.13298 255 255 255
0.84815 -1.09495 2.87942 255 255 255
-0.689261 0.148266 3.85441 255 255 255
-0.383062 0.830174 3.72965 255 255 255
-0.562625 -0.950953 3.26575 255 255 255
-0.412472 -0.531374 3.96674 255 255 255
-0.707449 1.97121 2.68708 255 255 255
0.19096 1.76029 3.48977 255 255 255
0.84314 -1.36057 2.43347 255 255 255
-0.570056 -0.15831 2.57761 255 255 255
0.361566 -0.30618 2.56434 255 255 255
0.56286 1.71993 2.68741 255 255 255
-0.334416 -1.5542 2.13696 255 255 255
0.173741 0.222821 2.15945 255 255 255
0.660295 0.228288 3.56377 255 255 255
-0.932068 -1.6572 2.67006 255 255 255
0.334078 0.125124 2.09744 255 255 255
-0.721699 1.95618 3.35228 255 255 255
-0.745005 0.614374 3.73196 255 255 255
0.057367 -0.850609 3.5303 255 255 255
-0.555719 -0.238942 2.51154 255 255 255
0.351813 -0.306232 3.07381 255 255 255
-0.421364 0.293344 2.3644 255 255 255
-0.448535 1.63385 3.80503 255 255 255
-0.300414 0.57748 3.29413 255 255 255
-0.42997 -1.29169 2.98726 255 255 255
0.0928166 -0.35939 3.34695 255 255 255
-0.447065 -0.303609 3.36199 255 255 255
0.415185 0.661151 2.74085 255 255 255
0.939655 -1.37283 2.26096 255 255 255
0.340513 0.227015 2.52498 255 255 255
-0.17217 0.575793 2.81378 255 255 255
-0.609908 -1.98509 3.93154 255 255 255
-0.324 -1.32005 2.04122 255 255 255
-0.610934 0.999703 3.96881 255 255 255
-0.179143 -1.8517 3.62579 255 255 255
0.339318 0.459498 3.10877 255 255 255
0.236441 1.58923 2.57074 255 255 255
0.878625 -1.5546 3.83551 255 255 255
0.57507 -1.94278 2.89556 255 255 255
-0.943833 0.998984 3.70335 255 255 255
0.502835 -1.6307 3.33501 255 255 255
0.174895 1.14839 2.53416 255 255 255
0.241175 -0.758408 2.30355 255 255 255
-0.527603 -1.76857 3.97171 255 255 255
-0.00284448 1.43152 2.14983 255 255 255
-0.194231 -0.198887 3.17982 255 255 255
-0.119677 -0.625886 3.09177 255 255 255
0.495335 1.34774 2.45473 255 255 255
0.741984 0.445914 3.11109 255 255 255
-0.635967 1.17614 2.48644 255 255 255
0.509035 0.188684 2.78472 255 255 255
-0.793574 -1.7691 2.98394 255 255 255
0.132127 0.0505293 3.09051 255 255 255
-0.417765 -0.867728 3.06402 255 255 255
-0.535996 -0.712281 3.24301 255 255 255
-0.165392 -0.666478 2.62592 255 255 255
0.916207 1.12408 3.9765 255 255 255
-0.683222 1.98472 2.53169 255 255 255
0.24835 -1.67709 3.92198 255 255 255
0.96731 -1.36244 2.84567 255 255 255
-0.258102 -1.79233 2.67015 255 255 255
0.228869 1.27873 3.58781 255 255 255
-0.288206 -0.287421 2.4404 255 255 255
-0.40067 1.02385 2.18108 255 255 255
-0.276884 1.58322 2.35464 255 255 255
0.572175 1.48765 3.7277 255 255 255
-0.731901 -1.31897 3.09023 255 255 255
-0.696047 -1.48465 2.48603 255 255 255
-0.23602 -1.79902 2.26152 255 255 255
-0.0190877 0.689833 3.87743 255 255 255
-0.0405883 -1.02825 2.62318 255 255 255
-0.862033 -0.00739661 2.07534 255 255 255
-0.142071 0.312329 3.87889 255 255 255
-0.906444 -0.670998 3.48055 255 255 255
-0.559096 -0.819059 3.44726 255 255 255
0.197689 -0.229138 2.84684 255 255 255
0.555692 1.42102 2.57134 255 255 255
0.252248 1.59326 2.57972 255 255 255
-0.488802 0.468283 3.14474 255 255 255
-0.90591 -1.93975 3.34477 255 255 255
0.902315 1.0923 2.15622 255 255 255
-0.675811 -0.154584 3.43927 255 255 255
-0.680919 1.61197 2.1746 255 255 255
0.379035 0.896652 2.54932 255 255 255
0.27807 1.06832 2.16867 255 255 255
0.893624 -0.0443438 2.06328 255 255 255
0.7786 -1.89766 2.35301 255 255 255
0.595831 0.531558 2.71273 255 255 255
0.0856068 1.08722 3.09818 255 255 255
0.773474 0.69091 2.07241 255 255 255
-0.540722 1.72383 2.12575 255 255 255
0.952857 1.38072 3.9039 255 255 255
0.212606 -0.991888 2.11638 255 255 255
0.575193 0.720178 3.82457 255 255 255
0.21163 -0.463015 3.23741 255 255 255
-0.568031 0.339834 3.06762 255 255 255
-0.589543 1.29067 2.66973 255 255 255
0.164957 0.327603 2.08202 255 255 255
0.56229 -0.671341 3.71659 255 255 255
0.278807 -0.901327 3.4801 255 255 255
0.721913 -1.4693 3.36065 255 255 255
0.768905 0.467059 2.69846 255 255 255
-0.983401 -0.574312 3.81346 255 255 255
-0.544888 1.11294 3.56693 255 255 255
-0.116696 -1.55574 3.45397 255 255 255
-0.445862 -1.07948 3.5527 255 255 255
-0.0320786 0.0373869 3.6093 255 255 255
-0.683958 0.947863 3.87003 255 255 255
0.032097 -1.94469 3.42068 255 255 255
0.503654 0.165319 2.58614 255 255 255
-0.755029 -1.9996 3.78474 255 255 255
-0.826562 -0.234175 2.05322 255 255 255
-0.0600748 -0.269323 2.98449 255 255 255
-0.325833 -1.94613 2.58469 255 255 255
-0.54115 -1.74077 3.86671 255 255 255
-0.630531 0.664413 3.31297 255 255 255
0.188742 0.606625 2.11087 255 255 255
-0.247477 -1.94805 3.52551 255 255 255
-0.705955 1.0202 2.54728 255 255 255
0.662781 -1.87241 3.30286 255 255 255
-0.157747 0.956505 3.7223 255 255 255
0.383177 -0.357588 2.15548 255 255 255
-0.845785 -0.368609 3.26751 255 255 255
-0.799933 -0.306496 3.61354 255 255 255
0.920591 0.776535 3.28229 255 255 255
0.613537 1.52001 3.86932 255 255 255
-0.811993 0.596809 2.32299 255 255 255
0.585027 -0.106665 3.20186 255 255 255
-0.0440175 -0.34709 2.60132 255 255 255
0.788016 0.988789 3.71507 255 255 255
0.461372 -1.33725 2.39284 255 255 255
-0.16752 1.71044 3.60647 255 255 255
0.541638 1.56747 3.34559 255 255 255
-0.501934 1.18452 2.79843 255 255 255
0.426191 1.8996 3.86663 255 255 255
0.774093 -1.03705 2.91585 255 255 255
-0.525009 -0.710701 2.43828 255 255 255
-0.519623 0.68352 2.42072 255 255 255
0.797938 -0.833353 2.64926 255 255 255
-0.0313981 0.217801 2.76084 255 255 255
0.419699 -1.95148 2.26242 255 255 255
-0.0813967 -0.667645 2.71924 255 255 255
0.993867 0.456023 3.86112 255 255 255
0.471592 -0.296173 2.5297 255 255 255
-0.0681055 -1.16623 3.32131 255 255 255
0.473686 -0.656375 3.59574 255 255 255
0.8107 1.85192 2.4531 255 255 255
0.049304 0.553418 2.42875 255 255 255
-0.143192 0.325786 2.33464 255 255 255
0.598926 -1.56872 2.1998 255 255 255
-0.50828 0.764126 2.12373 255 255 255
0.874382 -0.142258 3.05705 255 255 255
0.528221 -0.983769 3.6166 255 255 255
0.439692 -1.4493 2.47079 255 255 255
0.557246 0.52158 3.97017 255 255 255
0.208964 -0.654499 3.26061 255 255 255
-0.536222 -0.73082 3.30766 255 255 255
0.860714 -1.01941 3.27458 255 255 255
-0.214791 1.77391 2.96848 255 255 255
0.0105353 0.437059 3.89113 255 255 255
-0.140739 -1.63092 2.74491 255 255 255
-0.501339 1.96202 2.13971 255 255 255
-0.427214 0.725101 3.59208 255 255 255
-0.459503 1.25014 3.9263 255 255 255
-0.860684 1.78321 2.80611 255 255 255
-0.89739 1.46315 3.96623 255 255 255
-0.647356 -1.29978 3.46448 255 255 255
0.59414 -0.541571 2.32886 255 255 255
0.225563 0.234163 2.79379 255 255 255
-0.260557 -0.469257 3.56647 255 255 255
0.327244 -0.203142 2.17036 255 255 255
-0.223061 -1.80281 2.37192 255 255 255
0.207727 -1.62982 3.25757 255 255 255
-0.294685 -0.806257 2.95123 255 255 255
0.173973 -1.02365 2.34266 255 255 255
0.179227 0.721947 2.03691 255 255 255
0.371398 0.862774 3.88145 255 255 255
-0.72833 -0.238941 2.65749 255 255 255
0.363385 0.244869 2.62567 255 255 255
0.891903 1.59103 2.86258 255 255 255
0.37304 1.43037 2.25729 255 255 255
0.192806 -1.12766 2.34312 255 255 255
0.546664 -1.09768 2.89645 255 255 255
-0.767039 0.687564 2.43601 255 255 255
0.233041 1.1006 2.85307 255 255 255
-0.00806518 0.315808 3.10421 255 255 255
-0.839046 1.52131 2.60516 255 255 255
-0.480004 -1.23684 3.23581 255 255 255
-0.26998 -0.362601 2.55999 255 255 255
-0.776425 -0.17925 3.76869 255 255 255
-0.534334 1.99587 2.71146 255 255 255
0.738864 0.816214 3.03996 255 255 255
0.128671 -1.13565 2.25646 255 255 255
0.580689 -0.84271 3.6609 255 255 255
-0.640934 1.93649 2.24861 255 255 255
0.681309 1.0211 3.25254 255 255 255
0.672075 -0.361414 3.9078 255 255 255
-0.41308 -1.41603 2.25216 255 255 255
0.685582 -1.52569 2.67943 255 255 255
-0.315284 -0.526199 2.39234 255 255 255
-0.812068 -0.908071 2.94778 255 255 255
0.940166 -0.778388 2.8475 255 255 255
0.667946 1.81953 2.3028 255 255 255
-0.979112 -1.12254 3.19643 255 255 255
0.124415 -1.06015 2.31116 255 255 255
-0.0460123 1.18237 3.72178 255 255 255
0.929976 -0.0563563 3.27132 255 255 255
-0.211706 -1.02453 2.50393 255 255 255
-0.949634 -1.14255 3.6958 255 255 255
-0.178946 -1.49308 3.95094 255 255 255
-0.691967 -0.55159 2.94538 255 255 255
-0.309672 -0.888102 2.94885 255 255 255
-0.444189 -1.75656 2.25638 255 255 255
-0.683184 0.526364 3.09294 255 255 255
0.493634 0.662057 2.47544 255 255 255
-0.201232 -0.457447 2.96987 255 255 255
0.721178 0.982839 2.15179 255 255 255
-0.561325 -1.98224 3.60693 255 255 255
0.359266 0.770867 2.08293 255 255 255
-0.325808 -0.216626 3.92394 255 255 255
0.395297 0.270061 3.15846 255 255 255
0.961003 -0.799293 3.45097 255 255 255
0.598005 1.41812 2.91291 255 255 255
-0.975311 1.52676 3.36696 255 255 255
-0.299473 -0.220445 3.6567 255 255 255
0.0116414 0.869421 3.128 255 255 255
-0.870356 1.52175 2.60753 255 255 255
-0.515355 0.943345 3.58697 255 255 255
0.379086 -0.597399 3.75446 255 255 255
0.511066 1.0189 2.85983 255 255 255
0.160735 0.291106 2.33395 255 255 255
-0.704096 0.890589 3.8947 255 255 255
-0.218659 1.0211 3.24004 255 255 255
-0.640601 -1.42561 2.61795 255 255 255
-0.916091 -0.911384 2.93632 255 255 255
0.842973 -0.254376 2.21579 255 255 255
-0.689254 0.914895 2.97673 255 255 255
0.973816 0.284437 3.51319 255 255 255
0.13051 1.73986 2.70849 255 255 255
0.175337 -1.8646 2.28604 255 255 255
0.181895 -0.291182 2.87093 255 255 255
-0.0708796 0.684156 3.48992 255 255 255
0.90849 1.04268 2.99302 255 255 255
0.842973 1.73141 2.37348 255 255 255
-0.706808 -0.420986 2.42497 255 255 255
-0.422652 -1.83387 2.29082 255 255 255
0.480749 -1.18027 2.66423 255 255 255
-0.178534 -1.55158 3.73309 255 255 255
-0.681971 0.977718 2.334 255 255 255
0.0487785 -1.33297 2.73767 255 255 255
-0.0898403 0.980185 3.72191 255 255 255
-0.476874 -1.16176 3.61252 255 255 255
0.399105 -1.57749 2.15244 255 255 255
0.600487 -1.31247 3.28719 255 255 255
0.882651 -1.8319 3.66102 255 255 255
-0.740832 -1.06408 2.06386 255 255 255
0.183725 -1.61587 3.42135 255 255 255
-0.275521 -0.442954 3.02239 255 255 255
-0.324745 1.02241 3.39189 255 255 255
0.289954 0.656685 2.51121 255 255 255
0.524744 -1.58433 2.53698 255 255 255
-0.409168 0.745267 2.39798 255 255 255
-0.176684 -0.21329 2.55592 255 255 255
-0.106168 -1.10893 3.97785 255 255 255
-0.287115 1.39586 2.75188 255 255 255
0.293113 -1.65269 2.90839 255 255 255
-0.963995 -1.29382 2.46993 255 255 255
-0.788617 0.37717 3.53216 255 255 255
0.233946 1.85624 3.74797 255 255 255
-0.364667 -0.146542 3.85388 255 255 255
-0.912234 0.887879 2.67644 255 255 255
-0.906553 0.620066 2.79179 255 255 255
0.20218 1.9108 2.34564 255 255 255
-0.963223 1.9133 3.30806 255 255 255
0.940697 1.60756 2.44863 255 255 255
-0.70263 0.557519 2.0434 255 255 255
0.412515 -1.26328 2.62746 255 255 255
0.361365 -1.73217 2.32688 255 255 255
0.0869447 -0.18994 3.00623 255 255 255
0.916904 -0.739049 3.97846 255 255 255
-0.0350092 -0.555152 2.44821 255 255 255
-0.674188 0.217507 3.09148 255 255 255
0.324746 -0.651151 2.15713 255 255 255
-0.298794 0.936757 3.93041 255 255 255
0.882119 1.56057 3.25067 255 255 255
0.0300261 0.221618 2.39814 255 255 255
-0.798641 -1.10998 3.20314 255 255 255
0.316055 -0.553952 3.19062 255 255 255
-0.501431 0.151708 3.04043 255 255 255
0.0491737 -0.669174 2.6841 255 255 255
0.975561 1.11203 3.94072 255 255 255
-0.531911 0.471219 2.50493 255 255 255
-0.81258 1.68901 2.62623 255 255 255
-0.0499066 1.63252 2.07673 255 255 255
-0.105662 0.58883 3.52544 255 255 255
-0.59165 1.13963 3.60744 255 255 255
-0.591007 -1.17678 3.8773 255 255 255
-0.182874 -1.45949 2.25026 255 255 255
-0.555768 -0.803218 3.38421 255 255 255
0.380989 0.966509 2.92386 255 255 255
-0.0421463 0.940078 2.08793 255 255 255
0.206987 -1.54379 2.44307 255 255 255
0.49004 1.91831 2.79616 255 255 255
0.308242 1.69348 3.04285 255 255 255
-0.678105 1.49738 3.11502 255 255 255
0.763874 1.22595 3.64675 255 255 255
0.883266 0.77051 3.69397 255 255 255
-0.147758 1.91917 2.79515 255 255 255
-0.907133 0.0162458 2.0444 255 255 255
-0.232513 -1.95507 2.16079 255 255 255
-0.940779 0.0641937 2.42889 255 255 255
0.171836 -0.465656 3.99241 255 255 255
0.701803 1.8915 2.42154 255 255 255
-0.305389 1.37404 3.12954 255 255 255
0.151111 1.18045 2.85258 255 255 255
-0.872181 1.06391 3.1529 255 255 255
0.16386 -1.18047 2.80398 255 255 255
0.618224 -0.0452503 3.84323 255 255 255
-0.838818 -1.66212 3.12441 255 255 255
-0.879164 -1.88188 3.53737 255 255 255
0.0942153 0.997562 2.54207 255 255 255
-0.716084 0.438694 2.18976 255 255 255
-0.0146259 1.98768 2.44271 255 255 255
-0.734007 -1.61043 2.08597 255 255 255
0.337549 1.21269 3.05298 255 255 255
0.885034 1.34795 3.92272 255 255 255
-0.792902 -1.58999 3.19756 255 255 255
0.862193 -1.44346 3.56701 255 255 255
-0.778064 0.74574 3.79541 255 255 255
0.301832 -1.79836 2.88726 255 255 255
-0.221247 -0.278443 3.141 255 255 255
-0.320316 0.989956 3.26709 255 255 255
0.450413 1.50806 2.83826 255 255 255
-0.381954 -1.43827 3.31801 255 255 255
0.694366 1.78122 2.1821 255 255 255
-0.951351 0.048346 2.01862 255 255 255
-0.748266 -1.18934 2.80148 255 255 255
-0.921184 1.46597 2.44735 255 255 255
-0.137789 0.736916 2.78714 255 255 255
-0.738505 0.95255 3.26653 255 255 255
0.601434 -1.7869 2.53612 255 255 255
-0.073445 1.09587 2.6671 255 255 255
-0.578651 0.291152 2.68266 255 255 255
0.374971 -0.150276 2.80153 255 255 255
0.538035 0.733149 2.05971 255 255 255
-0.683485 0.823201 2.22417 255 255 255
0.11441 1.91642 3.0683 255 255 255
-0.268811 -1.78482 3.28064 255 255 255
-0.153079 -1.29748 2.26815 255 255 255
-0.76811 -1.89719 2.7398 255 255 255
-0.590779 0.344973 3.96157 255 255 255
-0.846243 0.279068 2.95144 255 255 255
0.35712 1.30447 2.74527 255 255 255
0.981046 1.82601 2.07282 255 255 255
0.622427 1.5867 2.6376 255 255 255
-0.0877971 -1.01165 2.66605 255 255 255
0.867 0.562639 3.83071 255 255 255
0.456114 1.721 2.404 255 255 255
0.922944 -1.0414 3.38309 255 255 255
-0.418049 -1.29815 2.73789 255 255 255
-0.286884 1.25072 3.31702 255 255 255
-0.929649 -1.26773 3.7259 255 255 255
-0.347175 -0.718633 2.08977 255 255 255
-0.473098 -0.469975 3.06733 255 255 255
-0.145467 0.685448 2.14675 255 255 255
-0.584731 0.550775 2.48527 255 255 255
-0.823134 -0.550182 3.35054 255 255 255
-0.867958 0.557596 3.17579 255 255 255
-0.190154 -0.274958 2.78287 255 255 255
0.673004 1.25409 2.88637 255 255 255
-0.320334 1.26948 2.72403 255 255 255
-0.850664 1.08778 2.10349 255 255 255
-0.965023 1.15739 2.00826 255 255 255
0.228623 -0.779283 3.2064 255 255 255
0.555137 -1.67892 3.60596 255 255 255
0.890143 -0.680079 2.46017 255 255 255
0.992753 1.94846 3.37108 255 255 255
-0.174286 1.01816 2.39643 255 255 255
0.177862 1.89694 2.8073 255 255 255
-0.636818 1.0302 3.45538 255 255 255
-0.205432 1.69349 2.09563 255 255 255
0.0819219 -1.09267 3.89476 255 255 255
0.270734 0.751254 2.87794 255 255 255
0.864107 0.774935 3.54625 255 255 255
0.966245 -1.73017 3.02131 255 255 255
-0.14271 -0.202748 2.82466 255 255 255
-0.126554 0.470562 3.73924 255 255 255
-0.86294 -0.0819696 3.66478 255 255 255
-0.387219 -1.01943 3.26185 255 255 255
0.665245 0.255879 3.1685 255 255 255
0.664467 0.8137 2.17118 255 255 255
0.774693 0.466433 3.55982 255 255 255
0.803078 -1.72304 2.20712 255 255 255
0.342235 1.53252 3.32359 255 255 255
0.637668 1.18107 3.61322 255 255 255
-0.921273 1.88311 3.56963 255 255 255
-0.425546 -1.58925 3.16262 255 255 255
0.382384 1.04476 3.30251 255 255 255
-0.577196 -1.33506 2.22225 255 255 255
-0.76833 -0.851559 3.73807 255 255 255
-0.992331 0.918231 3.95672 255 255 255
0.506698 -1.43304 2.59278 255 255 255
0.833348 1.60029 3.83446 255 255 255
0.591851 1.6249 3.15716 255 255 255
0.961638 1.58102 2.66794 255 255 255
0.714877 1.28614 3.50744 255 255 255
-0.940998 -0.545871 3.49995 255 255 255
-0.03614 0.459453 3.71785 255 255 255
0.623017 1.91488 2.91995 255 255 255
-0.126101 1.46635 2.2693 255 255 255
0.590164 0.295532 3.54777 255 255 255
-0.685926 -0.243266 3.4952 255 255 255
0.731733 -1.01199 2.12131 255 255 255
-0.442915 -0.16931 2.44433 255 255 255
0.955828 -0.861149 3.94905 255 255 255
-0.870167 1.40285 2.5297 255 255 255
-0.554259 0.226212 2.22744 255 255 255
-0.167477 -0.682274 2.25159 255 255 255
0.440723 -0.668935 2.45926 255 255 255
-0.899073 -1.80321 2.72421 255 255 255
0.431912 -1.09328 2.5369 255 255 255
0.310684 -0.846591 2.44904 255 255 255
0.295702 0.700341 2.03503 255 255 255
0.0912077 1.48945 2.80901 255 255 255
0.705257 1.46141 3.04998 255 255 255
0.264947 0.425188 3.82686 255 255 255
0.137784 -1.03021 2.53453 255 255 255
-0.0370039 0.637434 2.40235 255 255 255
0.141511 1.91443 2.45107 255 255 255
-0.0978931 0.425884 3.81156 255 255 255
0.325589 -0.185281 2.80483 255 255 255
0.110279 1.69399 2.46394 255 255 255
-0.303011 -1.20637 3.80567 255 255 255
0.805688 -0.927288 2.62889 255 255 255
-0.662388 0.777976 3.34952 255 255 255
0.741411 -0.666676 3.89929 255 255 255
-0.47471 -0.141212 2.4555 255 255 255
0.476183 0.542386 2.28613 255 255 255
0.953531 -1.64756 2.21733 255 255 255
-0.280996 -0.458817 2.0932 255 255 255
0.060457 -0.677653 2.10094 255 255 255
0.568252 1.46542 2.84944 255 255 255
0.913062 -1.60376 2.69484 255 255 255
0.880168 0.867012 3.24159 255 255 255
-0.198289 -0.530131 2.44516 255 255 255
-0.670815 1.72783 2.0261 255 255 255
-0.649829 -1.21617 2.96623 255 255 255
-0.376736 -1.34255 3.88629 255 255 255
-0.616522 -1.18383 2.79977 255 255 255
0.299639 0.614594 3.55063 255 255 255
0.109725 -0.937212 2.21801 255 255 255
-0.630661 0.623372 3.43359 255 255 255
0.0237311 0.269129 2.17798 255 255 255
-0.72372 -0.327705 3.11399 255 255 255
0.891747 1.52171 2.92687 255 255 255
0.796473 -0.769237 3.66047 255 255 255
0.0561527 -1.75891 3.93367 255 255 255
-0.661004 -1.04032 3.57954 255 255 255
0.222875 1.33228 2.86836 255 255 255
0.956433 -0.732132 3.09043 255 255 255
-0.98762 1.74557 3.21147 255 255 255
-0.705161 -0.11316 3.08321 255 255 255
-0.326514 1.54432 3.01916 255 255 255
-0.714767 1.02402 2.07516 255 255 255
-0.516839 1.61061 3.45128 255 255 255
-0.830327 -0.598027 3.40038 255 255 255
-0.656192 -0.662643 2.23107 255 255 255
0.966341 1.14135 3.43639 255 255 255
0.39452 -1.78213 3.23753 255 255 255
-0.71298 1.49137 2.8917 255 255 255
0.265889 0.977894 2.2813 255 255 255
