ply
format ascii 1.0
element vertex 504
property float x
property float y
property float z
property uchar red
property uchar green
property uchar blue
end_header
124.811 32.7416 -152.415 0 255 0
133.718 35.8968 -149.815 0 255 0
143.963 34.9172 -148.088 0 255 0
152.898 29.613 -146.441 0 255 0
2.57615 -59.1228 -40.971 255 255 255
-13.7922 51.569 -18.1162 255 255 255
-21.168 49.3182 71.0053 255 255 255
1.67635 -2.35866 79.6988 255 255 255
-92.1922 1.29184 -1.88307 255 255 255
-19.0608 -45.236 -8.3827 255 255 255
-40.861 -11.2436 79.2582 255 255 255
-21.2794 -92.1511 18.2246 255 255 255
-65.1034 6.48341 -49.8112 255 255 255
-75.1644 -15.7645 31.0106 255 255 255
-24.7094 53.8499 -42.0302 255 255 255
-31.8227 -67.503 79.4568 255 255 255
-22.954 8.27499 -33.0563 255 255 255
-34.1722 24.04 61.0289 255 255 255
-115.394 19.418 22.8914 255 255 255
28.2143 -50.0885 23.5108 255 255 255
-28.3298 11.1816 -41.2258 255 255 255
9.02249 10.062 -39.711 255 255 255
-9.17284 -58.1225 54.8374 255 255 255
32.0253 -19.4556 6.40212 255 255 255
-46.1389 -79.565 -40.9821 255 255 255
22.5135 -38.5614 -38.3548 255 255 255
-30.6547 52.2213 -74.299 255 255 255
-96.0322 -64.9561 8.84087 255 255 255
-67.2987 -26.6737 -10.1367 255 255 255
43.164 -40.6769 -22.2837 255 255 255
-0.832733 -58.8002 -1.31416 255 255 255
-89.9748 -113.126 -4.71391 255 255 255
-24.1873 -60.2254 58.8157 255 255 255
48.1302 -36.0061 -8.1669 255 255 255
-39.216 -48.6791 -5.97433 255 255 255
-30.076 42.0342 23.8532 255 255 255
31.9434 -3.43614 44.184 255 255 255
-74.3863 -73.739 27.6871 255 255 255
23.3404 -5.20181 9.77484 255 255 255
-29.3488 -69.5777 -46.6525 255 255 255
31.1627 -72.4302 74.2512 255 255 255
18.827 -92.3863 73.0797 255 255 255
35.4423 -80.012 62.4242 255 255 255
-34.6747 22.5462 102.337 255 255 255
-117.017 10.8301 34.0142 255 255 255
-65.6264 -21.3732 4.91354 255 255 255
-103.547 32.7166 14.5958 255 255 255
-48.1117 -62.851 -0.264325 255 255 255
-72.576 42.5299 16.951 255 255 255
-35.5206 -47.3599 -62.6754 255 255 255
19.4879 -80.7489 -0.623121 255 255 255
-51.3138 -82.0373 -50.0876 255 255 255
22.7665 -32.6619 -56.7488 255 255 255
51.2579 1.47316 0.964393 255 255 255
-3.39265 33.8194 58.6631 255 255 255
32.4877 -12.2615 39.6436 255 255 255
-6.37044 22.4116 36.665 255 255 255
-29.7036 41.7695 93.1909 255 255 255
16.3568 30.1587 73.3426 255 255 255
9.30795 -70.0989 -37.863 255 255 255
-31.0514 -89.7459 -2.17583 255 255 255
-5.48449 -79.2943 -76.1696 255 255 255
-55.2148 -99.3526 -10.9593 255 255 255
-80.2704 30.5568 -28.4966 255 255 255
6.15352 -40.1557 96.1752 255 255 255
-7.949 15.9618 -48.2064 255 255 255
-44.9173 -17.4482 -16.398 255 255 255
-78.7699 -57.9146 -15.6645 255 255 255
-25.1116 -32.833 -2.88884 255 255 255
-24.8687 -95.3831 56.1877 255 255 255
-59.2469 -23.1697 54.9335 255 255 255
-114.453 -6.0952 4.87953 255 255 255
-36.7524 -70.3087 -45.9307 255 255 255
9.35414 -38.2493 -43.1118 255 255 255
-23.6521 28.4897 -26.8936 255 255 255
4.01389 31.7656 -36.7641 255 255 255
17.5998 -28.319 3.52467 255 255 255
-45.8953 47.7632 31.8022 255 255 255
-26.0484 -76.5969 48.9806 255 255 255
5.78799 -40.7222 82.2847 255 255 255
-10.3904 -96.295 57.3652 255 255 255
-59.2655 45.9566 12.5563 255 255 255
-74.7646 47.2577 -27.249 255 255 255
-39.2693 -26.2339 -27.9226 255 255 255
-87.878 -93.3714 -8.72631 255 255 255
45.8623 -82.3961 31.4995 255 255 255
8.54488 -72.7815 70.3367 255 255 255
29.0529 59.6953 28.105 255 255 255
-38.4465 32.481 29.3768 255 255 255
-91.3454 26.5524 49.4895 255 255 255
7.69413 6.42479 -8.47395 255 255 255
51.3956 -53.8004 -1.32304 255 255 255
-32.1805 -37.1956 89.1516 255 255 255
-53.5535 -57.4349 -25.2284 255 255 255
-8.7605 -4.39279 2.56393 255 255 255
-16.0896 -54.0811 53.7111 255 255 255
75.1413 -67.2676 20.1271 255 255 255
-27.6878 -38.81 -47.1718 255 255 255
28.7644 -5.81698 22.7998 255 255 255
33.6069 37.3041 2.37404 255 255 255
-28.1972 46.072 -38.1437 255 255 255
-78.1233 14.6055 -21.9186 255 255 255
-45.4646 -79.1326 -36.2168 255 255 255
0.0661332 -76.2953 -15.6444 255 255 255
-18.3124 -68.3165 -21.1584 255 255 255
-44.453 -10.2736 1.80141 255 255 255
-51.9518 16.0105 -69.6702 255 255 255
32.2562 -59.2757 -4.7342 255 255 255
-0.74915 50.928 82.6684 255 255 255
73.0748 -66.4712 23.9697 255 255 255
-52.6969 36.8279 -70.0554 255 255 255
30.6113 -26.8718 55.3203 255 255 255
-71.8889 -19.1628 10.9193 255 255 255
-48.8468 6.62235 -57.1595 255 255 255
37.7071 71.0468 -0.283248 255 255 255
-0.19463 -34.1332 10.5466 255 255 255
-6.11414 43.9253 -8.91067 255 255 255
-24.5723 -66.0115 47.99 255 255 255
10.8102 39.4485 -11.5344 255 255 255
52.8349 -26.4285 3.02246 255 255 255
-82.7198 28.1636 54.7286 255 255 255
-7.66452 -68.6757 50.6157 255 255 255
-116.489 6.79492 28.8483 255 255 255
-43.7375 13.6639 8.91009 255 255 255
19.1022 -28.8035 24.8386 255 255 255
-55.102 -4.9571 33.0387 255 255 255
-52.9911 -68.4234 -11.9883 255 255 255
-12.3722 -52.8264 42.5811 255 255 255
-53.1267 -12.3624 7.84765 255 255 255
5.91784 42.9607 71.7616 255 255 255
-49.3965 -63.2345 -27.0057 255 255 255
-30.6026 26.4851 -31.0838 255 255 255
-12.2204 -43.5403 58.1997 255 255 255
-43.2483 -53.8206 -8.7762 255 255 255
-64.8422 -88.4101 -23.4861 255 255 255
-43.1389 -8.4169 33.5448 255 255 255
-41.0568 29.8856 -76.4593 255 255 255
43.2159 -16.162 -0.475955 255 255 255
-6.99374 -77.9509 -3.30666 255 255 255
-1.82034 -89.6351 54.3584 255 255 255
-10.1458 -70.1666 75.7822 255 255 255
51.6316 -41.4228 0.831295 255 255 255
26.5041 -38.0145 1.65798 255 255 255
70.5817 -37.4966 26.8951 255 255 255
-58.889 52.5513 -47.0249 255 255 255
-19.7549 -67.9029 -69.6173 255 255 255
-44.4533 -38.9738 8.25694 255 255 255
-44.6639 43.5458 6.0508 255 255 255
0.79282 24.1959 51.0014 255 255 255
-70.6054 -57.0687 13.6577 255 255 255
3.68138 -40.5878 -19.666 255 255 255
-62.8639 -4.10218 -53.8625 255 255 255
5.15618 -8.13504 49.8483 255 255 255
38.9947 -69.0693 -28.3952 255 255 255
9.46656 -45.5639 73.9106 255 255 255
48.3213 -38.2601 14.5955 255 255 255
-55.4535 43.3002 -64.9719 255 255 255
2.48104 -47.7432 101.354 255 255 255
65.1652 -46.7753 18.5216 255 255 255
-28.6989 -68.948 18.0566 255 255 255
-93.908 -2.35651 5.36835 255 255 255
6.63211 38.4853 68.0716 255 255 255
-13.3663 -57.6352 -2.17527 255 255 255
-8.31946 20.7155 -6.90133 255 255 255
-89.4203 -76.1793 -4.68244 255 255 255
-51.1482 -16.0337 -26.7196 255 255 255
10.0397 46.5239 -10.8004 255 255 255
-53.4085 -42.5202 5.07288 255 255 255
58.4986 -38.7322 9.73237 255 255 255
50.8597 -74.8637 0.524553 255 255 255
-32.9008 44.5847 -36.9018 255 255 255
81.9146 -4.98205 7.55666 255 255 255
-18.6778 40.4146 12.6123 255 255 255
6.58133 -13.3947 18.315 255 255 255
29.4776 -24.2579 36.202 255 255 255
59.7622 -39.0904 -14.9766 255 255 255
-60.6686 40.941 -36.433 255 255 255
-92.4123 -19.2363 14.9821 255 255 255
-39.5461 -34.0995 86.8566 255 255 255
38.3379 -48.3623 -35.5269 255 255 255
-21.5658 -87.0137 -58.3048 255 255 255
-17.0354 -68.2659 -74.0681 255 255 255
-63.6483 -39.6798 34.3352 255 255 255
23.3363 33.4812 -1.93926 255 255 255
-56.4817 -35.6427 16.1358 255 255 255
14.9942 4.33109 -45.8601 255 255 255
42.8846 49.2773 22.2168 255 255 255
-94.8088 -16.7328 35.7044 255 255 255
-15.7761 -16.4324 63.1804 255 255 255
7.45342 0.500369 -34.8443 255 255 255
-18.0776 -30.8069 -66.5887 255 255 255
-91.6278 35.4692 15.898 255 255 255
10.9589 -54.9112 63.9731 255 255 255
61.7262 -59.7987 -9.13884 255 255 255
-93.0701 -46.4466 22.2477 255 255 255
35.9114 31.9721 23.411 255 255 255
54.8837 -57.5926 21.5844 255 255 255
-5.57646 -35.8442 32.8119 255 255 255
53.8514 69.7242 7.065 255 255 255
-40.3965 -1.87815 1.52569 255 255 255
-106.321 4.65952 20.4268 255 255 255
-47.1106 -6.86461 83.3321 255 255 255
-92.9364 28.6907 41.2324 255 255 255
71.101 -41.0854 -11.9045 255 255 255
54.4348 12.0442 14.4925 255 255 255
-36.3005 -105.321 50.7274 255 255 255
-24.8947 -81.6462 -34.4346 255 255 255
-10.8641 -36.6179 42.8024 255 255 255
41.935 -61.9378 -19.1396 255 255 255
-114.248 9.40032 35.6721 255 255 255
-70.8767 9.94659 46.6729 255 255 255
-49.7368 -31.812 -53.7062 255 255 255
-80.7397 -68.7685 5.84555 255 255 255
35.1663 -10.8873 4.33347 255 255 255
5.96168 -36.9146 -63.617 255 255 255
-13.7484 -77.8803 -78.2644 255 255 255
-80.6945 -40.8794 6.10752 255 255 255
25.1674 -83.4038 61.109 255 255 255
-32.312 -19.1618 94.69 255 255 255
-50.752 14.5938 -22.2228 255 255 255
42.2 -65.3585 -28.7858 255 255 255
-105.948 -92.1184 12.3391 255 255 255
-100.769 -32.9784 28.8745 255 255 255
-10.4866 -79.3241 -22.7801 255 255 255
-32.9728 -47.7683 14.2064 255 255 255
15.2221 -63.8706 66.2801 255 255 255
-70.0088 28.3435 63.4485 255 255 255
-7.61682 49.3849 -30.8338 255 255 255
-39.3835 -86.1541 -28.6523 255 255 255
-84.1296 10.0197 59.295 255 255 255
-29.4306 -19.246 57.6308 255 255 255
-60.64 -92.6577 -25.1087 255 255 255
29.3909 -80.1072 -19.7308 255 255 255
-27.2192 -3.08624 -76.4362 255 255 255
-37.76 -11.7568 -40.2897 255 255 255
12.1683 -52.4996 33.0701 255 255 255
-29.7328 15.2475 -53.6902 255 255 255
-77.3776 -75.1088 0.769674 255 255 255
-39.9853 -103.219 13.9355 255 255 255
21.9251 27.0135 44.9464 255 255 255
-38.8758 1.883 -45.153 255 255 255
10.0746 -43.3975 46.1368 255 255 255
12.5139 -52.7811 29.8924 255 255 255
-12.1618 52.7733 28.6246 255 255 255
-62.4534 -66.9278 14.4842 255 255 255
14.8727 8.96207 13.6158 255 255 255
6.06474 -79.5982 72.0117 255 255 255
27.0448 36.0216 1.1518 255 255 255
-41.3348 37.8031 62.3273 255 255 255
-58.4564 -6.62263 -35.0701 255 255 255
4.90149 -91.1145 12.0395 255 255 255
-92.2618 7.83593 51.9219 255 255 255
-117.579 32.0789 8.37299 255 255 255
64.6465 61.7572 18.7041 255 255 255
84.9524 -52.686 -8.41005 255 255 255
-40.226 -10.8168 -37.7793 255 255 255
11.996 37.3288 -20.2405 255 255 255
-21.2348 55.9613 12.5557 255 255 255
-13.6176 -63.7416 4.17452 255 255 255
-1.12152 33.1874 68.8505 255 255 255
-14.4581 -36.4543 -54.3963 255 255 255
21.2611 2.82867 38.657 255 255 255
-27.914 7.39273 -15.1496 255 255 255
-61.1513 -31.5279 28.0939 255 255 255
-55.4084 31.5826 15.8712 255 255 255
51.3168 -73.1897 -29.5474 255 255 255
-47.7283 -46.3356 29.7131 255 255 255
-62.6899 3.85934 -6.87248 255 255 255
-30.4684 34.8782 -60.1629 255 255 255
63.4872 -60.1064 -28.7771 255 255 255
-108.644 -9.77173 3.88084 255 255 255
-82.3316 29.0243 27.0794 255 255 255
15.7173 -94.5686 82.7192 255 255 255
-38.1023 24.798 -66.6612 255 255 255
-74.4132 -51.4325 35.3886 255 255 255
-87.6998 0.602537 0.563015 255 255 255
7.36747 -55.9847 -50.0907 255 255 255
-80.6118 -85.2425 23.4133 255 255 255
-29.3177 24.3351 -22.4824 255 255 255
-29.3055 -50.6724 -23.1624 255 255 255
-98.5892 0.188389 20.6093 255 255 255
-89.9352 -108.136 8.503 255 255 255
-41.9904 -44.426 -42.1507 255 255 255
-49.3662 1.46573 60.0826 255 255 255
63.4507 -7.31445 9.25197 255 255 255
-38.9844 21.512 11.4569 255 255 255
-59.8348 15.8263 -55.8861 255 255 255
-71.2824 -94.7617 -1.13314 255 255 255
-58.1396 3.35579 63.5791 255 255 255
-53.2676 -19.602 -14.3488 255 255 255
-99.6469 -71.804 15.0369 255 255 255
26.7149 7.23727 33.2838 255 255 255
-14.2002 13.476 14.0542 255 255 255
-15.0076 26.2781 0.233785 255 255 255
-24.1072 -35.5336 9.54633 255 255 255
-93.5559 14.8575 -0.930261 255 255 255
-31.898 -62.1271 69.3148 255 255 255
-21.6561 58.3877 -25.2786 255 255 255
-11.3708 36.3837 -23.1876 255 255 255
-25.45 -0.336692 73.8988 255 255 255
3.74726 24.6092 24.6937 255 255 255
39.7428 -6.02407 -8.38898 255 255 255
-81.2742 30.872 -16.5916 255 255 255
1.4093 -72.2685 50.8701 255 255 255
-53.1081 2.8483 9.99268 255 255 255
42.5809 31.3279 -16.6342 255 255 255
35.9089 42.1815 41.6583 255 255 255
-30.0907 -16.2815 52.8197 255 255 255
-88.0214 -14.5734 -17.5502 255 255 255
3.11319 52.0073 9.94276 255 255 255
-76.6362 4.74358 70.5823 255 255 255
-93.1847 12.2248 51.6274 255 255 255
-68.7141 -26.3921 65.032 255 255 255
-5.78728 26.3691 39.3008 255 255 255
86.5859 -40.5732 -1.20425 255 255 255
-72.8529 32.036 61.0198 255 255 255
-31.2866 23.8452 45.0308 255 255 255
-60.8793 53.302 -68.0501 255 255 255
-17.2973 44.3806 78.7034 255 255 255
-10.4877 -53.2178 -2.7212 255 255 255
-63.5264 38.9474 62.8613 255 255 255
-0.774343 -68.3663 -57.2957 255 255 255
-41.0595 4.28289 26.7035 255 255 255
-43.7364 -22.4672 53.0263 255 255 255
-1.54253 -34.1368 3.57241 255 255 255
-10.2775 -40.311 88.8468 255 255 255
-53.0489 -85.5236 -39.0455 255 255 255
-16.6457 -30.5414 90.388 255 255 255
-9.0564 18.1716 -38.1144 255 255 255
-35.1724 -18.1055 -11.7146 255 255 255
-20.7229 -40.8072 44.4575 255 255 255
18.8865 -64.2347 63.0706 255 255 255
31.5857 -39.4445 -21.4541 255 255 255
-97.3094 -99.2984 16.2216 255 255 255
-44.2162 -6.21727 -6.60994 255 255 255
-77.2228 44.9867 -36.2237 255 255 255
-53.9938 -48.3957 15.6206 255 255 255
15.7004 -35.5885 15.0747 255 255 255
-56.0457 41.5487 -44.0977 255 255 255
-37.8578 -22.8053 -63.8316 255 255 255
-6.46477 -51.4628 19.5608 255 255 255
-5.80517 -34.7606 -0.100786 255 255 255
-22.2631 -88.1946 -9.27645 255 255 255
64.0627 -77.3784 20.7513 255 255 255
-14.3531 -75.1546 76.8609 255 255 255
0.692386 -41.7384 3.93865 255 255 255
-105.232 5.10646 14.1107 255 255 255
28.5593 -28.6739 4.84883 255 255 255
38.6327 -78.5955 -24.5924 255 255 255
-56.7056 47.0089 -6.26126 255 255 255
-43.1764 -22.5275 -2.06578 255 255 255
-75.3149 0.536263 0.904937 255 255 255
-15.293 55.3031 -57.5215 255 255 255
29.2505 29.0233 -2.72347 255 255 255
-54.1063 34.3233 -35.4722 255 255 255
-7.40669 -40.8793 76.3009 255 255 255
-10.1691 -38.0617 -59.1721 255 255 255
-2.47422 5.83701 -4.11493 255 255 255
17.3639 49.1994 5.60042 255 255 255
-83.6572 30.6775 4.80214 255 255 255
56.5663 -17.0933 0.61005 255 255 255
-94.3303 39.2944 -17.7818 255 255 255
-15.353 -39.7924 23.7733 255 255 255
-54.8041 -6.68744 12.2709 255 255 255
-28.9519 10.7727 -21.973 255 255 255
43.3945 -74.4759 0.7444 255 255 255
-26.919 22.8491 -79.1313 255 255 255
17.9892 -12.6687 -5.94472 255 255 255
-9.94958 3.48652 93.3007 255 255 255
75.3444 13.4228 7.73309 255 255 255
-25.8553 -52.6628 -47.8361 255 255 255
-27.6517 -72.2625 26.5466 255 255 255
7.64345 -13.936 -45.0514 255 255 255
46.9991 9.69637 5.09101 255 255 255
5.87059 -81.6026 101.183 255 255 255
-73.9275 -19.5881 16.2802 255 255 255
24.5372 0.990987 -35.901 255 255 255
33.316 -19.9311 28.0459 255 255 255
-56.019 28.2839 15.0331 255 255 255
-10.6356 -24.5419 89.9789 255 255 255
-85.5253 3.81733 40.4132 255 255 255
19.8019 38.0831 57.9732 255 255 255
-32.714 27.2906 105.259 255 255 255
-69.0584 -81.6241 23.8393 255 255 255
-50.7348 -17.0665 68.2024 255 255 255
26.3614 34.0963 11.6281 255 255 255
-10.1961 29.1976 11.4001 255 255 255
-4.06106 14.6781 3.6176 255 255 255
5.54217 -55.2109 -7.10403 255 255 255
-11.9397 5.96721 62.5652 255 255 255
-114.047 21.4522 26.0167 255 255 255
30.4297 -64.568 54.9807 255 255 255
38.8903 39.1194 -5.24022 255 255 255
-33.5166 27.3577 -34.8343 255 255 255
28.5908 67.9474 -12.1127 255 255 255
5.92338 37.9576 -23.5745 255 255 255
-74.0896 -100.285 14.4104 255 255 255
-80.1103 -93.312 10.0224 255 255 255
-89.8175 -42.8954 35.6491 255 255 255
44.9025 42.165 8.82408 255 255 255
-81.9812 -5.11009 -17.078 255 255 255
3.0169 -55.6029 87.5119 255 255 255
49.0294 -51.9255 30.7606 255 255 255
61.9221 26.6285 9.40805 255 255 255
-100.165 -114.632 6.55816 255 255 255
-22.7751 45.3838 95.9493 255 255 255
-1.68494 -67.9493 -47.3431 255 255 255
-43.0797 26.7539 -1.3776 255 255 255
-46.7432 -22.8456 -1.95 255 255 255
-34.2248 -40.8467 42.3553 255 255 255
-12.3103 -28.482 42.7897 255 255 255
-63.7964 -73.1743 50.3869 255 255 255
-8.23467 14.8947 80.6145 255 255 255
-92.8369 3.34867 28.4501 255 255 255
-41.637 4.49866 35.6319 255 255 255
-3.25072 39.7554 79.4463 255 255 255
-78.2084 10.8887 51.419 255 255 255
7.0894 -30.0812 -59.7767 255 255 255
-30.7383 48.6625 -13.7773 255 255 255
20.0461 -44.7233 -26.3989 255 255 255
-13.6438 -21.9058 -19.5698 255 255 255
-0.336001 -25.2839 36.2023 255 255 255
50.8293 -59.5495 30.371 255 255 255
22.773 7.13653 -43.2748 255 255 255
8.43347 -33.4674 -69.4729 255 255 255
-40.0012 23.3757 107.14 255 255 255
24.4142 7.58249 53.2525 255 255 255
-4.55448 -71.8243 1.61215 255 255 255
49.0467 5.62769 24.4051 255 255 255
7.03572 4.05668 15.9469 255 255 255
-91.4545 27.9176 14.2427 255 255 255
-17.1858 -85.1664 -42.786 255 255 255
-72.539 -106.059 -21.4911 255 255 255
-51.916 18.8777 -33.2504 255 255 255
-2.24409 -34.7289 -12.5424 255 255 255
30.012 -49.2534 9.01381 255 255 255
-64.3461 -5.85655 -22.7824 255 255 255
-24.1447 -31.1159 -87.81 255 255 255
-17.4349 -90.9989 26.0959 255 255 255
-47.5246 34.0776 53.6868 255 255 255
9.53 -10.3435 -60.0877 255 255 255
-7.05784 -75.5521 -81.4227 255 255 255
-36.0761 -20.4527 57.0626 255 255 255
-45.0323 17.5685 48.8285 255 255 255
39.7315 -35.3861 -19.874 255 255 255
-45.761 -15.7979 -37.756 255 255 255
14.3716 -43.1483 1.73741 255 255 255
-57.5097 -22.6943 -34.7118 255 255 255
-22.1248 17.1173 28.3012 255 255 255
-23.4198 0.629116 17.3641 255 255 255
17.6774 -57.8884 -15.5367 255 255 255
-96.6571 30.2874 12.7864 255 255 255
-6.64558 24.5697 -31.7581 255 255 255
34.6912 -43.2912 -28.7246 255 255 255
-48.1978 -92.3053 16.7193 255 255 255
-46.4639 -69.6657 66.0632 255 255 255
-11.6009 -41.995 -34.5768 255 255 255
0.345179 -59.2687 45.115 255 255 255
-57.3947 -5.91867 -8.92405 255 255 255
21.8903 -72.2919 -32.281 255 255 255
-42.4753 -18.4228 -70.6461 255 255 255
-59.935 -5.56427 12.481 255 255 255
-39.2919 -35.4249 35.803 255 255 255
-23.4468 -9.30049 2.5642 255 255 255
-38.9211 -37.3211 -56.4586 255 255 255
-74.705 -12.7809 4.57274 255 255 255
-28.9294 41.7138 62.8691 255 255 255
3.63645 -92.4355 83.7624 255 255 255
-58.9737 -10.741 38.592 255 255 255
-33.3679 19.0726 -71.2417 255 255 255
13.3597 -55.2076 -6.44006 255 255 255
-77.5033 -61.9106 30.4907 255 255 255
-34.8519 -5.40155 3.095 255 255 255
-10.8893 10.6878 -3.0638 255 255 255
11.3735 4.88011 83.4557 255 255 255
-29.7164 -18.7278 84.6254 255 255 255
-84.7599 -100.274 1.34935 255 255 255
5.15903 -17.3129 -26.8582 255 255 255
43.2089 -42.8362 -19.1019 255 255 255
45.5437 -3.88929 41.6086 255 255 255
-73.6165 -54.7833 44.9309 255 255 255
-24.2023 -15.9464 80.0209 255 255 255
-18.4555 -90.0475 -36.2814 255 255 255
34.3349 9.47361 34.202 255 255 255
10.8419 -1.25087 20.2836 255 255 255
-19.2171 -2.22264 -6.0309 255 255 255
-59.4891 -0.701075 -23.256 255 255 255
68.5838 10.6551 8.66171 255 255 255
-58.0262 28.5343 26.6991 255 255 255
-42.5936 -16.5343 63.6252 255 255 255
-78.5697 -96.3355 -21.9209 255 255 255
-26.0859 5.49087 -34.7698 255 255 255
45.3009 13.7025 1.85994 255 255 255
77.5573 -19.4717 -3.60199 255 255 255
9.42531 17.7741 49.3628 255 255 255
28.0245 29.3651 17.7527 255 255 255
-50.6009 -34.8224 -44.9973 255 255 255
-7.53866 49.0268 77.2512 255 255 255
-105.583 -6.43779 26.438 255 255 255
-75.6239 -87.9541 -9.13837 255 255 255
29.6971 13.6513 9.81983 255 255 255
-10.0285 -65.9067 62.2989 255 255 255
-96.1259 -46.2472 25.2441 255 255 255
-36.9828 1.08246 6.44116 255 255 255
