ply
format ascii 1.0
element vertex 504
property float x
property float y
property float z
property uchar red
property uchar green
property uchar blue
end_header
-24.36 -152.893 -106.267 0 255 0
-26.737 -149.656 -103.246 0 255 0
-30.3275 -146.574 -101.67 0 255 0
-34.2843 -143.421 -101.62 0 255 0
29.7269 9.5017 -55.7072 255 255 255
8.09829 -56.74 -32.3348 255 255 255
49.4482 -0.698684 28.7186 255 255 255
-23.7214 32.6577 -44.4431 255 255 255
81.1117 -39.1981 -6.16258 255 255 255
-4.77731 3.65739 28.2006 255 255 255
-18.5701 13.096 -76.4416 255 255 255
4.69553 -2.00443 -66.9363 255 255 255
56.3761 43.7975 -48.9408 255 255 255
-10.2535 6.42198 -40.8817 255 255 255
25.4571 -15.9898 -101.611 255 255 255
17.8048 27.1623 -63.881 255 255 255
-13.7396 20.8843 -25.6428 255 255 255
20.7983 -23.2232 -63.6691 255 255 255
68.9376 -14.6649 -21.5894 255 255 255
1.3827 1.9308 -55.6692 255 255 255
-3.81352 52.3515 -18.1165 255 255 255
41.4144 29.8139 -40.832 255 255 255
34.3385 -2.53091 -70.041 255 255 255
68.6746 4.46828 5.16019 255 255 255
50.3499 25.6011 -77.9044 255 255 255
-2.57895 10.977 -37.5151 255 255 255
32.2759 3.32424 26.3316 255 255 255
89.1835 -6.34794 13.3802 255 255 255
54.1627 -6.17212 -75.6841 255 255 255
37.616 57.2377 -59.814 255 255 255
-33.4658 -33.8485 -37.1094 255 255 255
59.8452 -9.15481 -2.58941 255 255 255
27.4797 -39.9348 -47.1047 255 255 255
45.893 43.686 -34.4077 255 255 255
-34.0742 -52.8517 13.2383 255 255 255
26.3262 23.0655 -3.68523 255 255 255
-13.6368 51.3942 -36.2448 255 255 255
78.5582 -3.37951 18.1423 255 255 255
-8.67341 -21.9532 5.92605 255 255 255
17.9451 23.3654 17.266 255 255 255
59.1064 13.1166 -51.5342 255 255 255
8.52149 -0.686613 -9.53166 255 255 255
28.9698 -66.9996 -5.03721 255 255 255
-1.7842 22.3838 16.1802 255 255 255
10.3317 0.159417 -63.3518 255 255 255
40.4093 -43.1563 -0.446421 255 255 255
-6.9597 26.9885 38.9681 255 255 255
26.556 -7.55469 -93.8329 255 255 255
20.309 11.6348 -29.9646 255 255 255
24.525 37.5334 -24.3693 255 255 255
9.75132 -15.0016 -59.6015 255 255 255
14.4018 -52.5201 3.90554 255 255 255
37.5491 -7.25371 -19.6066 255 255 255
-12.3861 13.8718 -34.5706 255 255 255
68.1267 -27.7202 -42.6825 255 255 255
-47.7542 -15.9326 -60.4561 255 255 255
5.86565 -54.8937 8.07776 255 255 255
-10.7369 -38.093 12.749 255 255 255
45.8687 -58.7034 -14.7003 255 255 255
-31.3906 36.5616 -53.184 255 255 255
59.7351 18.4738 -59.1864 255 255 255
-24.5932 -18.5784 -21.2727 255 255 255
9.66097 17.9758 21.2874 255 255 255
-12.2364 53.6098 -20.056 255 255 255
34.8313 6.3823 31.1168 255 255 255
-31.5538 -10.4517 -4.02742 255 255 255
84.7974 21.7884 -17.8291 255 255 255
-25.747 -49.622 15.9774 255 255 255
60.3494 36.7949 -39.0863 255 255 255
32.8915 -54.7247 -53.5779 255 255 255
3.5428 35.3547 -11.9087 255 255 255
-2.78883 0.652132 12.8825 255 255 255
-21.916 5.83053 -31.2135 255 255 255
35.2286 14.7495 -2.97368 255 255 255
-0.136442 -6.36096 -72.5114 255 255 255
67.7909 -15.5805 -66.7357 255 255 255
-14.7624 38.0045 -7.33329 255 255 255
-32.2083 -25.0588 -77.3543 255 255 255
60.5809 39.7815 -34.7517 255 255 255
22.252 37.8728 -12.9901 255 255 255
0.329414 -18.7662 -100.325 255 255 255
31.097 58.0453 -49.6674 255 255 255
51.5916 9.87328 -72.9937 255 255 255
16.1021 -24.1773 -14.8271 255 255 255
16.1018 -52.4165 -30.4267 255 255 255
49.5371 -49.2781 -57.1389 255 255 255
8.26726 51.6294 -46.8683 255 255 255
-26.6734 -23.7537 15.6482 255 255 255
-10.1622 -24.6925 -27.9116 255 255 255
-10.0465 -5.24435 -10.2557 255 255 255
21.678 48.7528 -25.9332 255 255 255
4.4863 -1.83479 -86.5121 255 255 255
75.6789 -3.43894 -13.8585 255 255 255
-6.0258 -51.7844 -4.65184 255 255 255
55.6059 -44.351 9.3645 255 255 255
58.3601 43.4506 -35.7622 255 255 255
-23.4476 19.3429 -36.3632 255 255 255
52.2827 -15.8194 -106.35 255 255 255
-2.61763 -19.4188 -50.3036 255 255 255
6.90163 -21.5523 -96.4531 255 255 255
-26.1216 -12.0923 -88.0239 255 255 255
42.6064 -37.3196 -92.0891 255 255 255
-5.85806 -58.3859 -0.0910165 255 255 255
24.4268 -66.9228 -12.4311 255 255 255
61.1408 -56.5986 -22.1047 255 255 255
0.622009 -19.4711 -19.7972 255 255 255
60.2562 21.6085 -17.406 255 255 255
65.7809 -63.6524 -28.2732 255 255 255
13.0761 -63.6011 -28.5293 255 255 255
60.9656 41.3025 -68.9223 255 255 255
20.2319 -29.1805 -7.88402 255 255 255
69.5129 -18.0903 -35.0204 255 255 255
68.1535 -20.3179 -2.95925 255 255 255
60.6588 4.68012 -63.6751 255 255 255
35.6772 -13.6686 3.46446 255 255 255
13.2926 31.1658 -39.3928 255 255 255
62.6841 20.973 -24.5463 255 255 255
42.2532 -46.0759 -13.9053 255 255 255
31.5839 -50.1799 1.58623 255 255 255
58.1601 19.9856 -25.5934 255 255 255
73.529 8.70113 -8.39242 255 255 255
-20.6089 64.0656 -37.4265 255 255 255
68.0065 5.79473 -84.7506 255 255 255
55.7788 26.3576 -54.4388 255 255 255
34.5765 -19.9832 -64.7915 255 255 255
29.5971 18.799 -72.4938 255 255 255
66.4924 0.32658 -45.8982 255 255 255
-6.98387 19.8783 -9.47555 255 255 255
11.3434 20.4855 -21.7818 255 255 255
58.494 -35.6164 -32.0395 255 255 255
-1.80679 -19.8579 -34.8768 255 255 255
21.3625 8.53545 -71.5501 255 255 255
65.0445 1.36996 -88.8684 255 255 255
37.8583 39.1256 -66.734 255 255 255
-28.395 48.0855 -47.2445 255 255 255
41.2049 -47.6142 -43.0067 255 255 255
46.5681 -39.7303 -102.344 255 255 255
12.826 -11.3912 32.6982 255 255 255
65.6714 -43.4923 -42.912 255 255 255
-30.9996 -4.14795 -61.0635 255 255 255
25.0666 34.727 -61.623 255 255 255
59.008 40.6032 -58.1457 255 255 255
39.875 32.4814 -16.0682 255 255 255
17.1761 -62.6887 -23.6699 255 255 255
-11.1438 -9.9729 29.74 255 255 255
47.2835 10.0688 -26.0538 255 255 255
22.6793 -24.0005 24.2667 255 255 255
-13.3477 -19.4858 -19.7007 255 255 255
68.7383 3.58015 8.47586 255 255 255
57.2235 1.67804 23.8673 255 255 255
-22.1581 -31.4365 11.4697 255 255 255
14.3817 25.379 -72.3301 255 255 255
68.0929 14.4158 -23.16 255 255 255
61.8591 -0.480093 -23.2453 255 255 255
16.1368 38.6742 -62.7178 255 255 255
-18.5016 -24.2965 -13.3978 255 255 255
-18.8395 38.0432 -16.4595 255 255 255
-27.3095 11.9462 -17.4981 255 255 255
5.5009 12.153 -24.1597 255 255 255
43.5694 33.34 -34.8189 255 255 255
31.3495 -26.4047 0.482653 255 255 255
35.6283 -18.0724 -72.5088 255 255 255
39.9315 -13.25 -25.8684 255 255 255
21.6914 25.5377 -24.887 255 255 255
84.4103 -11.6506 -8.38251 255 255 255
89.2092 0.989395 8.40864 255 255 255
-34.643 -0.473083 -51.0701 255 255 255
-20.7116 -10.6119 -88.2628 255 255 255
-19.5672 52.8157 -8.80514 255 255 255
59.5295 28.7077 -44.2495 255 255 255
-8.73588 11.3484 -22.7859 255 255 255
43.2292 -42.8756 2.66168 255 255 255
42.585 13.6226 -48.3498 255 255 255
-10.8944 -1.6731 -21.0989 255 255 255
71.2289 5.72157 22.2803 255 255 255
-44.5556 -20.3564 -68.3351 255 255 255
-13.4259 -29.5609 -45.2698 255 255 255
0.560218 -37.2097 -8.09694 255 255 255
53.3279 -48.0162 -25.0755 255 255 255
31.1312 -7.7203 1.55694 255 255 255
51.7348 -35.2488 -109.548 255 255 255
-28.2999 19.0361 -57.4726 255 255 255
45.7987 -15.7559 -87.4732 255 255 255
60.7959 -1.1451 -51.9027 255 255 255
32.2635 -33.633 -41.7924 255 255 255
3.29943 -26.637 -89.3542 255 255 255
24.4485 -29.1562 22.6426 255 255 255
85.5853 1.85086 15.1489 255 255 255
22.1806 -37.3207 6.25639 255 255 255
-27.6708 46.8786 -40.6422 255 255 255
8.27233 11.3628 -40.1503 255 255 255
-27.9247 7.87429 -33.9798 255 255 255
46.5654 24.0145 -17.2325 255 255 255
-5.05858 -47.3336 -3.27146 255 255 255
75.4476 -49.3547 -23.9737 255 255 255
1.39804 -18.751 -84.2755 255 255 255
36.8827 29.7782 3.20793 255 255 255
33.435 -44.5022 -70.1656 255 255 255
54.7895 23.955 -13.0611 255 255 255
2.52398 -40.1131 4.58406 255 255 255
-17.9301 9.54036 2.00159 255 255 255
14.1058 3.1583 -79.0175 255 255 255
-15.4596 48.5409 -10.9859 255 255 255
54.6016 19.1304 -79.6842 255 255 255
74.1194 1.77442 8.88663 255 255 255
53.743 -28.6101 -98.2785 255 255 255
27.0228 -5.36356 -45.2433 255 255 255
15.2042 25.1359 30.2833 255 255 255
2.05839 -50.2342 -3.68923 255 255 255
27.9253 -20.2462 -73.2328 255 255 255
1.75622 51.036 -40.0719 255 255 255
78.4332 -30.4121 8.35186 255 255 255
61.406 11.3011 6.67514 255 255 255
62.704 -12.7416 -83.6222 255 255 255
4.33405 38.9385 6.50628 255 255 255
27.288 3.70339 11.3103 255 255 255
-6.2711 -20.8098 -39.8812 255 255 255
31.0385 0.42305 -48.7665 255 255 255
52.3054 9.49222 -7.26935 255 255 255
-23.3367 -33.9253 -69.6041 255 255 255
-27.5423 -22.4576 -45.2388 255 255 255
-19.3455 -25.7875 -2.40617 255 255 255
44.4823 42.9891 -41.1514 255 255 255
-22.5285 41.0544 -57.2819 255 255 255
34.8999 19.1983 14.5051 255 255 255
18.1003 20.0226 -35.8976 255 255 255
21.3093 40.1881 -31.0742 255 255 255
-22.0955 44.4132 -28.7594 255 255 255
-5.54658 -66.3952 5.06398 255 255 255
-18.3606 -19.4208 -20.9594 255 255 255
-11.5899 -7.51282 -6.61375 255 255 255
29.1915 16.0821 -8.44878 255 255 255
21.9741 -1.90749 5.14111 255 255 255
8.66519 8.87538 -23.4577 255 255 255
32.3721 45.2753 -25.6192 255 255 255
25.5697 -6.55196 -92.2553 255 255 255
1.1318 3.63569 4.29301 255 255 255
67.0648 -70.2683 -19.2422 255 255 255
-4.04534 44.5884 -24.8922 255 255 255
-7.97179 -32.9472 -62.4374 255 255 255
7.8081 9.31178 25.0154 255 255 255
57.5287 32.375 -23.4455 255 255 255
2.68952 21.1929 -17.2977 255 255 255
59.7466 8.73051 -7.79697 255 255 255
-25.8289 14.4375 -14.7705 255 255 255
74.4118 -55.0192 -15.1498 255 255 255
6.54166 -39.7928 -27.7755 255 255 255
80.0146 -54.128 -3.95119 255 255 255
70.1899 3.39001 8.08459 255 255 255
25.2927 16.5171 -67.2638 255 255 255
-4.40117 26.9042 -68.1912 255 255 255
-3.65332 -14.2039 12.3925 255 255 255
-16.1376 -12.1072 -32.8276 255 255 255
-7.06954 22.3609 44.9651 255 255 255
75.4736 -7.57219 -11.1032 255 255 255
62.0499 16.2058 -63.7954 255 255 255
34.3378 6.28709 -40.973 255 255 255
25.6442 -3.54906 6.143 255 255 255
11.5698 -32.183 -89.1002 255 255 255
-8.76351 -38.7249 -65.018 255 255 255
53.4809 -54.1524 5.57075 255 255 255
59.9447 -49.4281 -0.421653 255 255 255
25.3583 12.3047 -41.8607 255 255 255
-18.2822 -47.8548 14.1981 255 255 255
59.9166 22.9054 -82.7599 255 255 255
15.5594 33.7484 -47.0425 255 255 255
18.9394 -52.9484 7.01661 255 255 255
-30.891 -7.79484 -86.4665 255 255 255
-4.59571 3.02522 2.47365 255 255 255
5.1317 -33.3 -28.9054 255 255 255
37.3222 -33.6134 -81.6296 255 255 255
34.0756 3.02366 -88.5774 255 255 255
13.7563 44.9819 -61.636 255 255 255
-31.3165 7.7884 -78.1556 255 255 255
-44.2628 -8.74854 -64.2019 255 255 255
19.1837 -22.4683 -57.1407 255 255 255
73.8989 22.4192 -71.8042 255 255 255
-12.1475 -14.0698 -0.0148672 255 255 255
50.6822 -12.1673 -102.473 255 255 255
67.0603 -1.49253 -75.0454 255 255 255
47.6958 39.136 -26.8687 255 255 255
26.2651 -63.5029 -37.3897 255 255 255
42.4412 -25.5671 -91.1774 255 255 255
36.2383 44.6248 -30.115 255 255 255
9.67948 19.5688 -63.1062 255 255 255
-17.3282 -11.275 -51.4351 255 255 255
18.0733 18.0086 21.2075 255 255 255
-11.7571 -12.532 -14.1413 255 255 255
19.453 22.19 19.4416 255 255 255
-21.598 19.6367 -4.71198 255 255 255
-13.0805 -0.588907 -36.5278 255 255 255
-27.0391 -41.9549 6.52775 255 255 255
16.336 -25.5067 -64.0833 255 255 255
-19.1067 -41.5874 -24.7852 255 255 255
73.7829 7.99523 -57.4006 255 255 255
18.565 8.22136 -23.9918 255 255 255
73.0044 -27.2549 4.08772 255 255 255
69.8198 14.2665 -43.8955 255 255 255
58.3002 -31.5079 -95.5181 255 255 255
-10.4814 22.7612 -69.7547 255 255 255
71.03 -51.9094 -10.1337 255 255 255
-40.4374 16.425 -55.9963 255 255 255
20.8617 -19.0742 -91.0162 255 255 255
-22.036 35.3629 -62.0563 255 255 255
-23.8744 0.177756 -1.62594 255 255 255
4.0374 -34.1219 -4.09899 255 255 255
62.1588 -30.3686 -87.7106 255 255 255
67.5625 -80.7333 -11.2428 255 255 255
46.5906 -53.0686 -65.2845 255 255 255
-34.0652 20.7769 -52.1224 255 255 255
64.0877 43.2633 -39.9447 255 255 255
18.2069 -5.65764 -16.354 255 255 255
58.324 39.3816 -43.3657 255 255 255
70.4045 27.0189 -42.445 255 255 255
-21.3034 -14.4705 14.7953 255 255 255
6.1922 15.5454 -27.6182 255 255 255
-19.6694 -18.5873 12.2519 255 255 255
12.5455 -43.1174 -60.2396 255 255 255
58.2289 -14.4711 -15.8052 255 255 255
13.0989 22.4319 11.9972 255 255 255
42.5771 -46.8513 -16.746 255 255 255
0.475094 -26.2015 -54.8943 255 255 255
-18.1973 21.5305 -47.9419 255 255 255
-21.0976 -40.7916 16.0017 255 255 255
27.3166 1.86342 38.8338 255 255 255
80.7367 24.4629 -23.1851 255 255 255
-19.0019 -49.2304 -17.6079 255 255 255
0.0454229 -43.9323 -23.1489 255 255 255
62.6761 -5.60651 -55.1262 255 255 255
35.6625 -23.9956 -71.3019 255 255 255
-4.70575 24.4648 -66.6913 255 255 255
53.2209 -1.13172 -14.0618 255 255 255
-18.2629 -52.3346 1.79399 255 255 255
39.5717 -2.65603 -90.2754 255 255 255
10.7907 2.61535 -72.5183 255 255 255
37.3254 -12.7883 -72.8374 255 255 255
44.5762 32.8109 -44.3502 255 255 255
-11.4302 31.3649 -37.1377 255 255 255
-31.1825 39.8415 -44.4743 255 255 255
78.2574 10.4711 -48.7692 255 255 255
65.1703 7.36016 24.3226 255 255 255
35.5165 -10.5569 27.0099 255 255 255
53.7568 -50.5263 -69.777 255 255 255
-13.7442 -22.562 -90.4209 255 255 255
77.6489 4.32797 -1.57354 255 255 255
48.0204 -36.7902 -33.1878 255 255 255
38.806 29.3831 -65.8552 255 255 255
52.636 -14.2523 7.01048 255 255 255
72.1321 -36.0151 -5.29748 255 255 255
2.59483 22.8976 42.1768 255 255 255
1.03205 41.1241 3.86544 255 255 255
-30.4146 3.09361 -63.8911 255 255 255
62.825 27.1431 -75.3458 255 255 255
-20.2262 15.7997 -25.1367 255 255 255
8.65199 41.4399 -25.8156 255 255 255
51.3596 -35.0515 -98.9403 255 255 255
-8.63809 -41.0789 -39.2915 255 255 255
-14.1266 -35.1125 1.80383 255 255 255
2.85853 24.7208 -55.1919 255 255 255
53.6357 32.6676 -43.659 255 255 255
-18.9768 14.3652 -75.553 255 255 255
21.2943 -51.0675 -19.194 255 255 255
86.644 -26.7799 7.12844 255 255 255
-6.69288 -37.5995 -15.9874 255 255 255
-23.2307 -34.1125 28.6141 255 255 255
5.66988 7.88715 -68.9312 255 255 255
22.3868 10.3725 -48.6332 255 255 255
-15.7007 -8.12294 -5.34416 255 255 255
-16.3741 43.1172 -52.003 255 255 255
-21.3202 63.6511 -31.6893 255 255 255
65.0063 -27.578 -10.8471 255 255 255
27.1992 -14.8108 -43.4893 255 255 255
20.69 -50.5364 -40.6054 255 255 255
29.1508 -0.227272 -4.69407 255 255 255
-16.9977 0.0366147 -51.3689 255 255 255
62.9712 -50.9219 5.58606 255 255 255
80.427 42.8016 -57.751 255 255 255
-18.8989 15.3402 -23.6058 255 255 255
65.288 -68.8637 -26.5624 255 255 255
-23.9402 11.6449 -28.6039 255 255 255
36.0136 17.7946 -38.9959 255 255 255
9.30396 50.4623 -58.3734 255 255 255
24.6297 -13.0998 -31.6963 255 255 255
59.6966 -28.5846 -65.0553 255 255 255
56.0706 -41.1527 -30.1348 255 255 255
-15.8182 19.5076 5.8883 255 255 255
49.1788 23.4002 -47.9609 255 255 255
11.5705 9.59463 -33.7399 255 255 255
75.8006 29.4139 -41.4189 255 255 255
59.8548 -16.6241 -47.6955 255 255 255
-7.85909 32.0959 -67.7236 255 255 255
60.0897 4.01456 -28.4821 255 255 255
35.5563 -23.8151 -35.9041 255 255 255
35.4206 6.097 10.1339 255 255 255
14.5869 -58.0371 -32.4495 255 255 255
-6.04132 52.6169 -24.9104 255 255 255
33.5587 -30.4657 -61.2457 255 255 255
-17.6054 35.5309 -42.046 255 255 255
24.3375 -27.7776 -53.4651 255 255 255
76.9192 29.0845 -20.2586 255 255 255
57.0729 -32.6966 -68.9415 255 255 255
41.2055 -16.7549 15.4405 255 255 255
-27.577 19.078 -22.3323 255 255 255
37.2744 -19.7322 -68.2933 255 255 255
51.1546 -9.62551 28.0324 255 255 255
-20.4576 54.0743 -37.6051 255 255 255
-2.25151 -23.2406 -13.6312 255 255 255
51.4227 -33.3241 -3.21406 255 255 255
-37.9093 -12.4582 -40.5965 255 255 255
30.4964 -32.498 -8.00841 255 255 255
16.1504 -10.7677 -84.5831 255 255 255
41.9795 -28.7829 -41.8465 255 255 255
76.6679 -26.1587 -0.763615 255 255 255
57.2707 -49.7162 -64.2423 255 255 255
40.2414 23.149 -4.14896 255 255 255
4.98087 -0.549074 -1.33166 255 255 255
13.8571 -26.2592 -42.3896 255 255 255
0.264836 26.4228 -12.3716 255 255 255
1.68914 42.6167 -42.7555 255 255 255
-41.7134 -33.459 -47.4527 255 255 255
25.9082 -24.6798 -85.672 255 255 255
-30.5735 14.5216 -55.4402 255 255 255
-35.4902 29.9886 -50.6331 255 255 255
-37.151 12.8098 -74.9866 255 255 255
38.642 28.4415 -4.13987 255 255 255
11.9289 -44.5286 7.67132 255 255 255
16.6905 -6.89806 -25.0677 255 255 255
50.6716 -39.8422 -98.1643 255 255 255
77.2478 15.0447 -54.7176 255 255 255
47.0504 -25.6951 2.35599 255 255 255
-3.99649 25.8308 38.501 255 255 255
-13.2139 12.327 34.5174 255 255 255
32.9854 12.8647 -80.8928 255 255 255
24.2949 22.1079 -9.47071 255 255 255
-3.4068 3.90009 -14.8582 255 255 255
46.5593 -30.1633 -1.37117 255 255 255
-37.5582 -12.8983 -36.1785 255 255 255
11.232 -11.9247 -72.4875 255 255 255
-38.8579 -2.69055 -79.2257 255 255 255
6.44032 -17.2195 -14.6823 255 255 255
-4.66657 28.5596 -46.4588 255 255 255
69.7876 13.5713 -28.5366 255 255 255
15.7193 35.3164 -57.791 255 255 255
-4.37585 -5.34124 -92.5139 255 255 255
36.7122 -4.1113 -3.23325 255 255 255
23.3182 2.41701 -24.8202 255 255 255
14.2017 -15.6792 17.9845 255 255 255
-18.941 46.0785 -21.7622 255 255 255
-28.9377 44.3389 -37.3563 255 255 255
42.2399 12.2414 41.1578 255 255 255
74.0298 5.57057 -31.618 255 255 255
28.0527 -75.3444 -1.6382 255 255 255
-25.3605 -57.4552 -11.4859 255 255 255
41.6806 -3.31135 -97.3018 255 255 255
2.55216 30.6048 -30.5547 255 255 255
10.8938 -12.0379 -68.0217 255 255 255
-7.74155 56.438 -39.4647 255 255 255
26.5996 -41.3865 -14.122 255 255 255
-27.064 -42.2321 14.3465 255 255 255
-38.9541 -6.28533 -81.3847 255 255 255
39.1781 26.1922 -45.1734 255 255 255
73.8085 7.40859 16.9563 255 255 255
41.7757 -12.5547 -95.1179 255 255 255
6.95639 9.72477 -32.3636 255 255 255
-28.1033 -47.5628 10.6431 255 255 255
-23.6123 -24.8435 -46.4478 255 255 255
72.5037 -45.7798 -36.5795 255 255 255
63.4465 13.4651 -76.4018 255 255 255
48.2656 3.40399 -8.86494 255 255 255
36.4356 -4.10686 29.1114 255 255 255
-23.3954 -15.7438 -22.1387 255 255 255
5.84065 -40.6303 -32.2108 255 255 255
-2.42083 -50.7752 -16.5181 255 255 255
-22.5941 -23.1756 24.131 255 255 255
12.6151 10.4147 -61.9088 255 255 255
-44.8009 -16.288 -45.2236 255 255 255
2.89205 35.6759 12.9634 255 255 255
33.5751 -7.25512 -21.6674 255 255 255
46.8192 -60.9512 -50.4054 255 255 255
35.47 -31.272 -65.3272 255 255 255
59.6244 -6.83752 -89.4788 255 255 255
53.4654 1.45463 -21.2415 255 255 255
-38.4179 -34.6286 -18.6959 255 255 255
29.183 49.96 -51.5253 255 255 255
65.3761 26.9081 -73.2608 255 255 255
62.6761 -32.4073 4.56358 255 255 255
0.024953 -7.34129 -90.5529 255 255 255
54.5433 -15.6552 -70.87 255 255 255
17.5137 -4.69335 -73.1657 255 255 255
27.5832 -20.8276 -14.9572 255 255 255
70.8147 -12.2165 -5.33531 255 255 255
-12.2235 50.0992 -37.0631 255 255 255
-12.2183 -1.71754 -69.1421 255 255 255
-29.2229 -6.37271 -16.307 255 255 255
55.9368 -47.5506 -54.229 255 255 255
72.9279 17.5684 -36.6192 255 255 255
12.1696 -68.7911 -11.6257 255 255 255
70.5069 31.1222 -49.1363 255 255 255
47.1685 -40.3347 -45.2842 255 255 255
-27.916 22.5038 -32.918 255 255 255
53.3545 49.7721 -62.7 255 255 255
45.519 -80.7909 -9.98155 255 255 255
51.5416 -48.0861 -28.1377 255 255 255
4.24506 -57.1087 -24.5646 255 255 255
