ply
format ascii 1.0
element vertex 504
property float x
property float y
property float z
property uchar red
property uchar green
property uchar blue
end_header
-0.427754 -5.78049 -196.298 0 255 0
-4.12481 -6.50435 -192.784 0 255 0
-8.53105 -5.82905 -190.202 0 255 0
-12.9875 -3.70586 -188.728 0 255 0
13.0138 26.9598 3.07077 255 255 255
-4.13861 -28.5446 -61.4937 255 255 255
12.8076 -64.4994 42.5059 255 255 255
-53.1792 37.6009 17.7934 255 255 255
63.0729 -55.582 -7.12623 255 255 255
-46.8465 -53.2187 29.9643 255 255 255
-34.0929 56.3587 -19.3596 255 255 255
-8.69283 34.8756 -23.4199 255 255 255
34.3301 36.4171 54.1018 255 255 255
-33.7791 16.8022 -5.13117 255 255 255
25.6312 57.1694 -48.7924 255 255 255
-1.00085 47.1409 14.5401 255 255 255
-45.0623 10.7016 17.9601 255 255 255
11.5507 17.3715 -38.8635 255 255 255
50.3219 -25.7574 7.45795 255 255 255
-16.1644 26.8086 -14.1938 255 255 255
-43.2433 19.93 60.6573 255 255 255
17.9135 22.3475 37.2299 255 255 255
24.1251 33.2561 -15.8808 255 255 255
39.4495 -41.5562 42.1735 255 255 255
39.0764 55.3103 16.636 255 255 255
-27.3824 14.9504 3.97335 255 255 255
-5.97816 -57.3126 40.2071 255 255 255
61.5315 -58.7871 41.6451 255 255 255
47.8002 33.7642 -15.9993 255 255 255
14.0197 58.2747 57.2621 255 255 255
-51.0823 -5.6984 -52.4308 255 255 255
34.2827 -39.8749 20.134 255 255 255
17.0973 -8.56499 -45.7753 255 255 255
18.518 23.4126 58.0935 255 255 255
-61.3109 -63.3807 -47.2704 255 255 255
-7.89793 -15.9672 44.5051 255 255 255
-48.6635 39.0466 46.5234 255 255 255
48.0144 -60.1531 43.6518 255 255 255
-39.213 -44.366 -10.8466 255 255 255
-23.1325 -35.3181 53.4757 255 255 255
43.3326 20.5753 19.1001 255 255 255
-20.8589 -20.5767 9.38717 255 255 255
12.0999 -62.5651 -52.2264 255 255 255
-44.2889 -31.6989 45.6271 255 255 255
-4.0605 31.8893 -17.2217 255 255 255
18.7011 -56.6544 -21.6967 255 255 255
-57.6397 -51.149 61.6033 255 255 255
23.2062 54.4555 -35.7514 255 255 255
-4.80842 4.44499 15.8537 255 255 255
-6.86637 13.0892 49.2413 255 255 255
-2.82806 19.7321 -31.6103 255 255 255
-8.12617 -61.5798 -37.2594 255 255 255
14.5094 -18.786 6.02813 255 255 255
-39.4708 15.2256 5.68351 255 255 255
57.2671 -12.2954 -17.6012 255 255 255
-63.5423 28.6286 -50.3616 255 255 255
-17.7309 -65.4957 -40.0916 255 255 255
-39.8856 -58.9825 -25.0799 255 255 255
30.9131 -51.8552 -43.3438 255 255 255
-59.8751 49.635 14.7217 255 255 255
45.2755 31.1277 21.2834 255 255 255
-49.3793 -13.9156 -25.7918 255 255 255
-32.2327 -40.9514 46.8372 255 255 255
-52.35 23.9443 58.3876 255 255 255
-5.14457 -60.8075 46.8671 255 255 255
-63.5494 -25.1682 -10.1721 255 255 255
60.97 -11.7935 55.5175 255 255 255
-54.097 -65.657 -40.0232 255 255 255
37.2014 21.834 52.7424 255 255 255
27.0396 -11.1641 -62.521 255 255 255
-33.1745 2.70377 46.9705 255 255 255
-39.6949 -40.0655 19.2393 255 255 255
-49.0305 8.85576 -4.05188 255 255 255
3.27639 -22.676 38.4427 255 255 255
-11.4762 38.4793 -32.2646 255 255 255
61.6736 17.7382 -16.8312 255 255 255
-55.418 2.53683 47.1712 255 255 255
-40.355 37.1691 -63.8572 255 255 255
35.7339 19.232 58.6928 255 255 255
-12.7053 2.30126 55.0884 255 255 255
-0.972729 57.8178 -59.0977 255 255 255
3.6515 49.5706 61.4608 255 255 255
41.6419 40.8772 1.99262 255 255 255
-6.62789 -29.2691 -16.3433 255 255 255
2.89259 -29.2712 -53.7882 255 255 255
44.6772 -7.37363 -53.3496 255 255 255
-21.2778 46.3141 47.6861 255 255 255
-60.7749 -52.008 -13.0416 255 255 255
-30.8255 -13.0111 -31.5237 255 255 255
-39.7262 -19.5268 -1.57082 255 255 255
-11.8363 21.658 60.4446 255 255 255
-3.53838 53.7999 -33.4156 255 255 255
53.761 -28.2652 26.0299 255 255 255
-27.3166 -50.0328 -46.8878 255 255 255
32.3922 -69.0877 -13.0441 255 255 255
32.8582 22.7153 61.3847 255 255 255
-52.2083 21.8312 7.42542 255 255 255
55.9461 58.2665 -41.8537 255 255 255
-17.6821 10.1961 -35.3039 255 255 255
5.44489 51.5882 -57.9632 255 255 255
-33.6539 53.7944 -54.2198 255 255 255
44.8883 33.4156 -60.5426 255 255 255
-27.0561 -57.7355 -51.294 255 255 255
9.35122 -54.9148 -57.1088 255 255 255
48.7039 -46.1997 -39.8482 255 255 255
-22.6623 -19.6127 -18.6411 255 255 255
33.5897 -8.4669 46.8749 255 255 255
56.3321 -44.6825 -48.7522 255 255 255
1.26525 -36.4009 -65.1099 255 255 255
45.5657 54.1905 42.1492 255 255 255
-3.18591 -39.2043 -16.9458 255 255 255
55.1644 -14.6565 -2.97797 255 255 255
45.2412 -46.7506 10.503 255 255 255
49.826 27.3928 4.13996 255 255 255
7.28365 -44.3583 10.2935 255 255 255
-13.6816 26.0134 30.337 255 255 255
38.3937 -2.12248 43.2242 255 255 255
24.8199 -45.6287 -30.8192 255 255 255
10.0824 -60.7871 -30.8223 255 255 255
33.8574 -0.94718 39.9987 255 255 255
47.9108 -26.6692 41.688 255 255 255
-58.9662 48.9374 58.0685 255 255 255
63.7216 47.6996 -2.64016 255 255 255
38.2193 31.6316 31.0631 255 255 255
25.9727 18.238 -31.6385 255 255 255
15.8646 48.8264 4.49475 255 255 255
51.9622 6.63477 10.4523 255 255 255
-42.0755 -6.85897 27.5082 255 255 255
-18.6469 2.78943 27.1655 255 255 255
45.257 -25.3141 -23.7394 255 255 255
-20.999 -4.95133 -27.5209 255 255 255
8.54275 43.0902 -8.80861 255 255 255
62.3356 49.5721 -10.4582 255 255 255
19.5963 54.0496 32.6913 255 255 255
-60.9971 50.2494 31.8803 255 255 255
31.7618 -18.6044 -47.4105 255 255 255
52.3296 41.2743 -66.7159 255 255 255
-25.8596 -68.1819 20.9803 255 255 255
57.1162 -20.2151 -35.1106 255 255 255
-48.0929 33.3897 -33.3923 255 255 255
4.86039 48.2552 26.1878 255 255 255
40.4894 43.3523 46.6701 255 255 255
8.71384 -0.459679 53.0741 255 255 255
4.066 -41.1345 -60.4759 255 255 255
-51.1542 -60.8932 13.7771 255 255 255
23.7778 -4.40517 25.0022 255 255 255
-10.4199 -67.9391 5.85367 255 255 255
-37.5887 -17.6116 -22.7296 255 255 255
38.7568 -45.3248 42.9885 255 255 255
22.2004 -59.6834 45.085 255 255 255
-53.0568 -52.6119 -22.1092 255 255 255
-2.02119 54.774 6.62653 255 255 255
45.0946 -8.03785 38.4795 255 255 255
40.7067 -15.2689 19.5539 255 255 255
-5.42137 53.0526 27.1312 255 255 255
-43.8218 -25.5 -26.0805 255 255 255
-57.1467 12.2643 40.3638 255 255 255
-60.2105 -0.281872 8.35328 255 255 255
-22.6337 1.31662 14.8486 255 255 255
17.9534 18.1172 45.2298 255 255 255
5.83457 -47.5142 -6.23685 255 255 255
28.876 26.5617 -33.2105 255 255 255
19.8495 -16.3288 -3.07896 255 255 255
-7.46106 7.14665 34.6375 255 255 255
63.0969 -39.4531 22.7698 255 255 255
61.8085 -50.0073 47.3531 255 255 255
-55.6846 26.4629 -25.2137 255 255 255
-28.1601 54.0788 -51.1842 255 255 255
-63.6996 13.3473 61.5328 255 255 255
39.1225 22.3584 40.4631 255 255 255
-38.3352 1.70687 10.4039 255 255 255
20.7745 -59.8794 -19.0698 255 255 255
24.2375 20.219 15.7148 255 255 255
-38.3419 -6.87957 -3.65309 255 255 255
37.3257 -58.2925 53.7568 255 255 255
-56.8949 33.1047 -58.1615 255 255 255
-28.4916 1.42382 -46.4457 255 255 255
-22.3933 -40.2511 -31.3711 255 255 255
39.8532 -37.6995 -34.9541 255 255 255
1.81711 -38.6563 14.4418 255 255 255
59.2376 50.0778 -63.8505 255 255 255
-51.2716 42.9355 -5.98744 255 255 255
43.5382 40.8209 -34.9371 255 255 255
47.6246 12.5224 3.79571 255 255 255
19.6234 -10.9337 -35.0526 255 255 255
0.642052 42.4045 -60.839 255 255 255
-7.08763 -69.2643 0 255 255 255
55.7709 -55.6032 50.5117 255 255 255
-3.45239 -57.2848 -17.8203 255 255 255
-61.8344 42.8492 34.2851 255 255 255
-14.9583 16.0832 6.3329 255 255 255
-55.2007 13.6273 -5.1341 255 255 255
18.0221 -5.15018 45.2248 255 255 255
-27.5903 -49.2421 -41.1795 255 255 255
63.3403 -42.893 -28.6279 255 255 255
-4.22761 42.4154 -50.6271 255 255 255
0.454066 -20.7425 59.505 255 255 255
30.3665 9.91897 -60.0898 255 255 255
25.9152 -10.6108 49.9818 255 255 255
-23.2093 -54.1544 -27.4933 255 255 255
-55.0154 -22.23 18.7722 255 255 255
3.76728 48.1695 -21.0356 255 255 255
-57.4487 12.3827 56.5702 255 255 255
45.2175 52.4159 9.41531 255 255 255
44.8176 -47.5311 42.8696 255 255 255
57.2132 42.7699 -50.8863 255 255 255
9.91091 8.73474 -8.52477 255 255 255
-30.2549 -46.915 61.6641 255 255 255
-19.44 -51.3959 -42.2564 255 255 255
21.218 27.1476 -38.3192 255 255 255
-30.3501 40.2117 48.7124 255 255 255
54.9148 -64.6788 8.89113 255 255 255
29.8901 -38.2182 48.2998 255 255 255
60.414 36.4973 -23.9196 255 255 255
-38.4119 -13.7827 61.348 255 255 255
-7.25641 -41.5186 31.0347 255 255 255
-24.169 0 -32.4438 255 255 255
14.1556 14.8068 -2.83531 255 255 255
24.1503 -24.0118 36.0757 255 255 255
-31.3502 23.5742 -66.2312 255 255 255
-44.9606 7.42688 -43.1284 255 255 255
-47.4723 -36.7594 -22.2533 255 255 255
18.9989 29.9585 53.2603 255 255 255
-50.0394 55.0909 20.6127 255 255 255
-2.88007 -37.5019 52.6495 255 255 255
-7.18899 15.3753 21.2361 255 255 255
-9.03855 21.8173 47.6763 255 255 255
-58.6197 28.7403 39.9142 255 255 255
-26.5163 -66.6088 -56.8914 255 255 255
-42.6097 -15.6123 -24.755 255 255 255
-41.9324 -24.0725 -2.56724 255 255 255
-2.042 -15.5882 35.0161 255 255 255
-10.1914 -37.6596 19.9743 255 255 255
-18.7274 -1.69518 12.5861 255 255 255
0.660243 17.6316 60.0315 255 255 255
21.4947 53.5791 -34.4479 255 255 255
-33.6551 -30.6325 19.2042 255 255 255
56.1271 -56.663 -51.0188 255 255 255
-39.7986 22.1726 47.8972 255 255 255
-17.3501 15.0543 -57.0668 255 255 255
-33.4755 -49.0191 38.5002 255 255 255
30.4011 4.09346 55.0671 255 255 255
-29.5354 0.108243 27.7225 255 255 255
32.5703 -25.0623 37.2716 255 255 255
-60.0124 -1.78483 13.1965 255 255 255
60.6874 -54.0522 -30.5464 255 255 255
-10.2077 -23.7344 -42.2279 255 255 255
63.4635 -65.1378 -22.3486 255 255 255
40.5036 -45.2815 43.1154 255 255 255
10.136 43.0138 3.3723 255 255 255
-23.9763 54.4621 4.53331 255 255 255
-37.312 -47.3447 2.45346 255 255 255
-38.4647 -0.495148 -22.4968 255 255 255
-58.4169 -59.5924 59.4734 255 255 255
53.3876 -33.1544 22.6763 255 255 255
49.564 34.0419 17.3895 255 255 255
14.5038 10.0474 8.69772 255 255 255
-6.18318 -40.1171 20.0339 255 255 255
10.2934 37.8063 -63.8644 255 255 255
-16.3521 14.4191 -64.5194 255 255 255
32.7837 -70.0438 -25.9828 255 255 255
40.4343 -62.9159 -22.0995 255 255 255
3.8797 15.6983 11.9209 255 255 255
-46.1399 -64.1616 -36.8865 255 255 255
51.4763 57.0932 14.354 255 255 255
-9.53573 34.7279 29.8059 255 255 255
-4.1333 -65.4513 -34.7398 255 255 255
-39.9762 55.4006 -50.6836 255 255 255
-39.216 -28.299 15.8031 255 255 255
-12.6354 -18.9869 -36.4953 255 255 255
35.7868 26.2744 -53.3469 255 255 255
27.9875 54.4628 -19.5804 255 255 255
-9.60216 56.0939 33.8176 255 255 255
-46.1024 56.6628 -30.1641 255 255 255
-60.3558 35.765 -43.8242 255 255 255
7.91966 11.7971 -35.2631 255 255 255
63.9758 43.904 24.2722 255 255 255
-42.9689 -33.9238 -6.40069 255 255 255
52.5157 56.8416 -36.6961 255 255 255
61.0464 34.0266 -6.05413 255 255 255
19.2168 12.9353 57.5433 255 255 255
17.2952 -29.9894 -65.4731 255 255 255
42.6049 39.2773 -47.9285 255 255 255
6.37741 21.1683 58.3337 255 255 255
-8.60579 43.0931 3.90581 255 255 255
-34.6952 18.0588 -31.6668 255 255 255
-22.997 -42.1656 49.482 255 255 255
-38.9427 -19.4665 -11.8314 255 255 255
-21.8471 -38.3582 53.7795 255 255 255
-59.4156 -9.44254 25.3958 255 255 255
-36.5798 9.04252 -11.2269 255 255 255
-54.5566 -52.5797 -37.0634 255 255 255
7.34876 17.1612 -42.8114 255 255 255
-37.6529 -23.717 -50.1153 255 255 255
61.9613 21.1942 15.3954 255 255 255
-7.71003 -3.05517 14.6521 255 255 255
49.6974 -58.0182 8.27968 255 255 255
52.8212 12.0962 28.0212 255 255 255
61.7849 37.8007 -51.0891 255 255 255
-29.2738 54.4153 -2.80858 255 255 255
55.2633 -56.7244 -25.8626 255 255 255
-64.3201 41.8762 -11.5525 255 255 255
18.3517 45.8582 -48.2324 255 255 255
-46.7806 56.1796 11.4984 255 255 255
-58.3405 -22.8979 4.84425 255 255 255
-20.4245 -42.9863 -25.1045 255 255 255
63.7107 30.4491 -44.573 255 255 255
55.3617 -68.7129 -59.2014 255 255 255
44.359 -1.2804 -62.1506 255 255 255
-59.4951 39.663 -2.88255 255 255 255
40.5011 25.9296 60.9849 255 255 255
-7.52052 -18.1202 3.36631 255 255 255
35.6925 27.9264 52.6922 255 255 255
51.0065 17.9413 43.3885 255 255 255
-56.9101 -47.1696 -1.78198 255 255 255
-21.6028 6.52083 16.9782 255 255 255
-53.4821 -47.0764 -7.18289 255 255 255
5.50798 4.36274 -60.2153 255 255 255
37.0877 -29.613 7.09826 255 255 255
-26.7501 -29.8271 48.044 255 255 255
26.0486 -43.3824 -32.9389 255 255 255
-11.8173 10.3578 -43.7813 255 255 255
-43.6099 33.5902 5.04169 255 255 255
-51.1362 -61.9086 -29.4008 255 255 255
-14.6056 -69.6558 43.6451 255 255 255
57.5107 -4.29909 54.273 255 255 255
-37.9146 -34.563 -54.3663 255 255 255
-17.4848 -29.3329 -46.2174 255 255 255
51.3011 12.8594 -2.01903 255 255 255
29.5911 22.056 -38.7905 255 255 255
-24.2032 51.5317 2.35267 255 255 255
28.8777 -23.2845 20.834 255 255 255
-41.7641 -54.6249 -47.7455 255 255 255
35.4402 52.0732 -24.4141 255 255 255
-1.49496 42.0913 -19.2201 255 255 255
29.8984 29.6509 -27.1909 255 255 255
21.8666 27.1252 39.9446 255 255 255
-41.4934 27.7127 23.9695 255 255 255
-62.9803 43.0116 23.2913 255 255 255
64.175 13.4645 24.3594 255 255 255
29.7644 -58.396 54.341 255 255 255
0.0212247 -65.7516 26.19 255 255 255
52.7789 3.29574 -59.4575 255 255 255
-17.8149 48.2301 -62.3981 255 255 255
51.2765 -36.4627 41.8158 255 255 255
34.5445 -23.2166 -29.0845 255 255 255
22.1689 47.2183 22.649 255 255 255
24.7208 -50.8238 17.2104 255 255 255
52.6992 -53.3637 -6.18602 255 255 255
-47.1289 -58.0841 61.8171 255 255 255
-41.7831 -9.37705 61.4093 255 255 255
-48.2483 40.204 -27.0124 255 255 255
51.8474 51.8105 23.6646 255 255 255
-51.1397 8.29975 10.5421 255 255 255
-24.8274 19.3121 48.2008 255 255 255
55.8342 40.0561 -58.6213 255 255 255
-22.7684 -11.2197 -53.9056 255 255 255
-41.0738 -46.4449 -28.5289 255 255 255
-19.2848 39.3133 11.1613 255 255 255
31.7609 25.0003 43.391 255 255 255
-35.0638 56.3509 -17.5508 255 255 255
5.05077 -39.9607 -45.2655 255 255 255
63.6513 -62.9751 15.1007 255 255 255
-27.7975 -31.8289 -37.97 255 255 255
-58.3388 -70.2839 -16.6655 255 255 255
-9.0226 42.4542 -13.3214 255 255 255
2.91293 21.66 5.31562 255 255 255
-46.5883 -25.0169 -3.77083 255 255 255
-45.2389 50.1481 27.6461 255 255 255
-61.3426 43.0133 60.4208 255 255 255
45.1652 -42.4304 -2.44404 255 255 255
11.3387 1.74922 -17.6984 255 255 255
10.0772 -19.3515 -55.5935 255 255 255
0 -28.2379 18.9766 255 255 255
-36.7441 24.3642 -19.4951 255 255 255
42.3106 -69.952 -19.5434 255 255 255
64.0403 41.0707 56.8321 255 255 255
-50.016 6.32899 11.1939 255 255 255
56.0646 -48.8379 -53.5666 255 255 255
-53.2485 9.90427 2.98094 255 255 255
13.6755 14.4182 23.0152 255 255 255
-16.5664 56.8517 40.2944 255 255 255
5.02963 -8.29567 -10.6483 255 255 255
54.4269 9.99956 -32.5342 255 255 255
43.0092 -29.681 -29.5051 255 255 255
-56.1375 -20.909 32.8107 255 255 255
29.6335 24.4969 28.9504 255 255 255
-12.8307 8.31883 8.85161 255 255 255
56.3567 17.496 48.5761 255 255 255
47.9452 -0.1078 -11.061 255 255 255
-28.9488 57.5849 9.23554 255 255 255
39.4927 -7.37719 21.2722 255 255 255
19.8091 -11.7533 -20.6433 255 255 255
1.45581 -40.3489 35.7117 255 255 255
2.87057 -30.0545 -61.0366 255 255 255
-43.8273 27.277 56.7473 255 255 255
25.7156 9.15836 -41.1641 255 255 255
-47.7556 35.9373 23.95 255 255 255
13.3489 4.58043 -37.3146 255 255 255
51.6639 -3.9904 59.7347 255 255 255
53.3218 11.832 -39.5995 255 255 255
10.5009 -58.5174 15.0145 255 255 255
-60.7412 8.55492 13.5564 255 255 255
29.7752 21.3451 -32.2621 255 255 255
16.4684 -68.7171 32.6765 255 255 255
-56.4547 43.0723 46.6444 255 255 255
-26.6661 -27.1445 -20.3162 255 255 255
29.4996 -50.7087 -8.97421 255 255 255
-59.5679 10.1155 -33.1564 255 255 255
8.3691 -42.4287 -17.1512 255 255 255
10.0766 45.1599 -37.852 255 255 255
29.1409 -9.72029 -26.8519 255 255 255
54.8276 -53.3456 8.26189 255 255 255
54.884 -2.01728 -54.8058 255 255 255
7.51206 -17.6379 48.9718 255 255 255
-27.0313 -27.989 12.9093 255 255 255
-1.05868 -3.60047 -33.3888 255 255 255
-34.7214 -1.42145 35.5238 255 255 255
-27.8487 37.8426 37.5336 255 255 255
-57.0355 5.6089 -59.6349 255 255 255
23.2178 36.7786 -49.8995 255 255 255
-53.3228 38.6768 -10.4514 255 255 255
-63.6235 43.885 7.66803 255 255 255
-54.3302 57.417 -25.0542 255 255 255
4.73859 -14.4329 54.4415 255 255 255
-13.2747 -60.7522 -27.8069 255 255 255
-6.49312 -10.1078 -2.91827 255 255 255
55.6771 36.7107 -63.2639 255 255 255
63.9803 22.121 25.8953 255 255 255
21.9773 -51.4103 0.541379 255 255 255
-53.9481 -51.7412 60.9227 255 255 255
-59.818 -53.5684 40.5063 255 255 255
22.9604 53.0043 -5.28574 255 255 255
-8.29316 -10.457 39.7629 255 255 255
-33.205 -11.0269 7.99362 255 255 255
23.2298 -50.0295 -6.42401 255 255 255
-60.3282 5.55111 -31.2777 255 255 255
1.71379 33.6154 -34.4697 255 255 255
-51.7114 52.8588 -43.5741 255 255 255
-18.326 -24.2174 -11.8153 255 255 255
-30.7967 34.189 17.8639 255 255 255
48.6021 -3.45998 35.2606 255 255 255
-6.6176 46.2721 26.0075 255 255 255
-10.6723 58.8289 -42.8187 255 255 255
8.49721 -32.9191 17.7415 255 255 255
-1.20608 -6.20797 9.36619 255 255 255
-19.414 -56.2999 9.25092 255 255 255
-57.5427 22.247 46.5578 255 255 255
-63.6807 38.3275 33.0901 255 255 255
-1.00839 -68.895 61.368 255 255 255
55.4424 -5.579 26.2252 255 255 255
11.7381 -69.8085 -59.1868 255 255 255
-44.5067 -43.6645 -61.5987 255 255 255
39.8445 58.2732 -27.7948 255 255 255
-27.8733 18.6057 31.0213 255 255 255
0.146345 29.3079 -32.4541 255 255 255
-42.2967 44.3812 52.4463 255 255 255
7.51636 -40.6098 -30.8635 255 255 255
-56.6726 -60.1874 -33.4733 255 255 255
-50.3325 52.7139 -48.7771 255 255 255
17.3458 24.8815 30.1862 255 255 255
41.3651 -52.517 53.687 255 255 255
40.831 50.6695 -36.5494 255 255 255
-18.2469 7.75464 8.33475 255 255 255
-55.5708 -59.2052 -41.2011 255 255 255
-39.9375 6.66953 -45.1079 255 255 255
63.0866 -28.5471 -32.0552 255 255 255
55.0526 44.622 8.24385 255 255 255
21.244 -25.1307 26.9023 255 255 255
-0.80416 -64.5815 34.6144 255 255 255
-48.4626 -11.7132 -22.9158 255 255 255
-9.57662 -19.8512 -45.5851 255 255 255
-20.5254 -38.8118 -50.6957 255 255 255
-58.9153 -60.5379 -6.92015 255 255 255
-3.9749 36.0769 -4.72232 255 255 255
-64.7273 13.4492 -41.7348 255 255 255
-41.1491 -21.8578 60.5796 255 255 255
10.7937 -16.1749 3.69341 255 255 255
41.8407 -19.5316 -62.8364 255 255 255
28.9983 12.3206 -43.4019 255 255 255
57.7865 46.0729 -21.5644 255 255 255
30.7011 -14.8791 20.0866 255 255 255
-61.3089 -22.9794 -45.2612 255 255 255
3.61805 46.7995 50.3809 255 255 255
54.1484 49.245 25.4735 255 255 255
39.265 -59.4794 -0.490349 255 255 255
-6.1365 55.1135 -42.623 255 255 255
48.3958 23.612 -23.5855 255 255 255
7.26562 37.4547 -25.3507 255 255 255
5.01796 -29.0885 -9.38254 255 255 255
47.4602 -40.5503 18.9756 255 255 255
-46.5554 38.8538 44.9781 255 255 255
-26.2525 39.7264 -29.3259 255 255 255
-58.4561 -11.3467 -11.558 255 255 255
50.4112 -10.1556 -48.0935 255 255 255
53.7023 6.32274 36.6443 255 255 255
-3.23892 -54.7361 -62.3485 255 255 255
52.3333 26.9866 44.4985 255 255 255
37.5267 -13.4673 -38.9841 255 255 255
-58.8177 20.9773 11.4767 255 255 255
33.8155 54.235 52.4519 255 255 255
32.7896 -67.1128 -63.9884 255 255 255
38.7452 -34.5136 -37.2861 255 255 255
-10.1752 -35.4528 -59.2881 255 255 255
