ply
format ascii 1.0
element vertex 504
property float x
property float y
property float z
property uchar red
property uchar green
property uchar blue
end_header
-0 -0 -3 0 255 0
0.114024 0.015289 -3.07312 0 255 0
0.226078 -0.0280415 -3.13752 0 255 0
0.317604 -0.121061 -3.1769 0 255 0
-0.315972 -0.633177 -0.58578 255 255 255
-0.105856 0.873075 -0.553384 255 255 255
0.626341 0.983309 0.380256 255 255 255
0.853835 0.257419 0.458346 255 255 255
-0.791323 0.497166 0.420378 255 255 255
-0.212883 -0.344814 -0.117619 255 255 255
0.4195 0.279176 0.837687 255 255 255
-0.0655987 -0.908354 0.326476 255 255 255
-0.949968 0.412359 -0.303049 255 255 255
-0.357856 0.26751 0.661767 255 255 255
-0.421921 0.901534 -0.711888 255 255 255
0.425072 -0.477628 0.95232 255 255 255
-0.394075 0.32289 -0.490729 255 255 255
0.371934 0.687579 0.480155 255 255 255
-0.766514 0.8381 0.806497 255 255 255
0.528178 -0.521298 -0.177552 255 255 255
-0.510567 0.364234 -0.552308 255 255 255
-0.140622 0.232918 -0.84093 255 255 255
0.436445 -0.462747 0.484195 255 255 255
0.455588 -0.160376 -0.481748 255 255 255
-0.817001 -0.736945 -0.102424 255 255 255
-0.0692327 -0.431221 -0.799028 255 255 255
-0.78536 0.86991 -0.939117 255 255 255
-0.829674 -0.324995 0.763455 255 255 255
-0.665327 0.0471926 0.209217 255 255 255
0.271799 -0.507723 -0.79285 255 255 255
0.00611243 -0.571509 -0.144727 255 255 255
-0.964951 -0.97841 0.735715 255 255 255
0.322134 -0.434374 0.64928 255 255 255
0.455183 -0.445181 -0.711922 255 255 255
-0.391505 -0.320458 0.0896322 255 255 255
0.102139 0.855029 0.0158474 255 255 255
0.823217 0.0971621 -0.155612 255 255 255
-0.466792 -0.484772 0.805314 255 255 255
0.423373 0.0560003 -0.41972 255 255 255
-0.691193 -0.671105 -0.332434 255 255 255
0.985795 -0.753322 0.371512 255 255 255
0.82444 -0.972693 0.530788 255 255 255
0.908517 -0.880553 0.239109 255 255 255
0.739291 0.725308 0.895927 255 255 255
-0.692405 0.745566 0.945222 255 255 255
-0.508356 0.1298 0.336439 255 255 255
-0.703218 0.955883 0.567835 255 255 255
-0.448549 -0.466772 0.273521 255 255 255
-0.369513 0.986349 0.300764 255 255 255
-0.857258 -0.386485 -0.51691 255 255 255
0.177726 -0.919681 -0.243105 255 255 255
-0.945306 -0.759743 -0.15578 255 255 255
-0.223396 -0.380722 -0.997841 255 255 255
0.625581 0.0403258 -0.764433 255 255 255
0.663868 0.709482 0.155002 255 255 255
0.774052 -0.0248284 -0.176003 255 255 255
0.419284 0.54403 0.00772922 255 255 255
0.732435 0.943163 0.694834 255 255 255
0.983811 0.618868 0.144998 255 255 255
-0.239135 -0.790919 -0.57878 255 255 255
-0.340456 -0.869909 0.193838 255 255 255
-0.748988 -0.919679 -0.772796 255 255 255
-0.665702 -0.923741 0.336927 255 255 255
-0.866196 0.794665 -0.0509175 255 255 255
0.990541 -0.225092 0.703376 255 255 255
-0.369573 0.350318 -0.810495 255 255 255
-0.492561 0.0848705 -0.0691364 255 255 255
-0.871593 -0.322091 0.350947 255 255 255
-0.204452 -0.159155 -0.0435347 255 255 255
0.238926 -0.889812 0.745416 255 255 255
0.00171642 0.152376 0.786508 255 255 255
-0.958236 0.484079 0.705237 255 255 255
-0.752684 -0.652871 -0.273242 255 255 255
-0.239936 -0.39199 -0.725356 255 255 255
-0.312962 0.591566 -0.49552 255 255 255
-0.131356 0.535585 -0.821196 255 255 255
0.275518 -0.23143 -0.360477 255 255 255
0.0296031 0.988514 0.205373 255 255 255
0.19016 -0.653158 0.625846 255 255 255
0.859096 -0.249591 0.570053 255 255 255
0.390004 -0.948494 0.639506 255 255 255
-0.275748 0.982175 0.134883 255 255 255
-0.777981 0.992532 -0.135405 255 255 255
-0.554772 -0.0609459 -0.201786 255 255 255
-0.95044 -0.737045 0.611994 255 255 255
0.723534 -0.983465 -0.153638 255 255 255
0.729352 -0.690404 0.535194 255 255 255
0.740316 0.89539 -0.509344 255 255 255
0.0562834 0.768011 0.178604 255 255 255
-0.283917 0.888644 0.845418 255 255 255
0.122934 0.23179 -0.511517 255 255 255
0.522316 -0.675818 -0.616578 255 255 255
0.555634 -0.0712672 0.952183 255 255 255
-0.71416 -0.410073 0.0429762 255 255 255
0.0469065 0.160508 -0.229296 255 255 255
0.364272 -0.388481 0.510751 255 255 255
0.926582 -0.896869 -0.570236 255 255 255
-0.633203 -0.283725 -0.453086 255 255 255
0.593945 0.0484051 -0.329516 255 255 255
0.518982 0.559756 -0.724583 255 255 255
-0.431353 0.816352 -0.624478 255 255 255
-0.81502 0.595689 0.0594685 255 255 255
-0.767075 -0.72751 -0.0636152 255 255 255
-0.139604 -0.814585 -0.252645 255 255 255
-0.354211 -0.658682 -0.18004 255 255 255
-0.314792 0.199651 0.088391 255 255 255
-0.982933 0.46403 -0.646812 255 255 255
0.296645 -0.688301 -0.468629 255 255 255
0.93198 0.951934 0.308256 255 255 255
0.939539 -0.871397 -0.528089 255 255 255
-0.968462 0.735016 -0.697433 255 255 255
0.877427 -0.187187 0.0456466 255 255 255
-0.510504 0.185993 0.43612 255 255 255
-0.856292 0.351003 -0.520408 255 255 255
0.582557 0.969877 -0.908992 255 255 255
0.157383 -0.239086 -0.124167 255 255 255
0.041566 0.75827 -0.515608 255 255 255
0.211633 -0.52162 0.559733 255 255 255
0.175411 0.642955 -0.670241 255 255 255
0.617408 -0.322524 -0.670026 255 255 255
-0.150767 0.889327 0.820263 255 255 255
0.396645 -0.609158 0.459375 255 255 255
-0.745223 0.689688 0.926639 255 255 255
-0.206733 0.512853 0.0688404 255 255 255
0.483122 -0.214736 -0.158765 255 255 255
-0.127555 0.342913 0.462505 255 255 255
-0.606187 -0.535375 0.202623 255 255 255
0.301446 -0.39956 0.370366 255 255 255
-0.346029 0.208217 0.22066 255 255 255
0.886571 0.814364 0.17378 255 255 255
-0.699016 -0.500095 0.0103734 255 255 255
-0.42473 0.586425 -0.457022 255 255 255
0.458571 -0.258942 0.489079 255 255 255
-0.463255 -0.376885 0.112246 255 255 255
-0.854079 -0.767503 0.257852 255 255 255
-0.0128393 0.261287 0.385217 255 255 255
-0.924113 0.600046 -0.835746 255 255 255
0.507505 -0.163489 -0.655076 255 255 255
-0.0993862 -0.797807 -0.0628172 255 255 255
0.456348 -0.894481 0.515606 255 255 255
0.599513 -0.587619 0.737196 255 255 255
0.562559 -0.514198 -0.637982 255 255 255
0.330679 -0.387829 -0.423531 255 255 255
0.989671 -0.49063 -0.55589 255 255 255
-0.790037 0.978578 -0.490772 255 255 255
-0.798522 -0.707709 -0.653172 255 255 255
-0.299355 -0.160419 0.242545 255 255 255
-0.19738 0.897073 -0.0406174 255 255 255
0.621005 0.562347 0.077508 255 255 255
-0.531176 -0.300836 0.578315 255 255 255
-0.0875013 -0.37379 -0.436615 255 255 255
-0.98393 0.265528 -0.320013 255 255 255
0.605825 0.13081 0.143454 255 255 255
0.133346 -0.869096 -0.721523 255 255 255
0.810592 -0.335157 0.466842 255 255 255
0.660001 -0.444607 -0.482216 255 255 255
-0.936208 0.830789 -0.651804 255 255 255
0.990161 -0.304772 0.807196 255 255 255
0.849745 -0.606218 -0.552001 255 255 255
-0.1041 -0.584771 0.308861 255 255 255
-0.745684 0.464136 0.507147 255 255 255
0.854768 0.751315 0.152655 255 255 255
-0.12065 -0.514744 -0.0627133 255 255 255
0.00364067 0.468616 -0.408495 255 255 255
-0.904343 -0.507262 0.611371 255 255 255
-0.643728 0.109796 -0.120357 255 255 255
0.185286 0.736664 -0.68152 255 255 255
-0.42 -0.181023 0.29883 255 255 255
0.715009 -0.490836 -0.613682 255 255 255
0.502657 -0.94354 -0.524106 255 255 255
-0.470466 0.81725 -0.55883 255 255 255
0.976342 -0.134045 -0.94027 255 255 255
0.108396 0.783896 -0.181666 255 255 255
0.324927 0.0161914 -0.166979 255 255 255
0.694401 -0.174637 -0.149716 255 255 255
0.50167 -0.531076 -0.871488 255 255 255
-0.734094 0.854442 -0.324864 255 255 255
-0.675007 0.25766 0.662928 255 255 255
0.467184 -0.010187 0.980302 255 255 255
0.09403 -0.604541 -0.871629 255 255 255
-0.744423 -0.932576 -0.463315 255 255 255
-0.80673 -0.72383 -0.730772 255 255 255
-0.252561 -0.0732022 0.676151 255 255 255
0.374479 0.537309 -0.66915 255 255 255
-0.342211 -0.068455 0.427367 255 255 255
-0.14608 0.131436 -0.939454 255 255 255
0.805391 0.708796 -0.65302 255 255 255
-0.50689 0.324642 0.875583 255 255 255
0.510297 0.109488 0.483017 255 255 255
-0.126945 0.122058 -0.747923 255 255 255
-0.706458 -0.237862 -0.740627 255 255 255
-0.575102 0.958134 0.483694 255 255 255
0.720663 -0.474138 0.385538 255 255 255
0.541954 -0.79458 -0.769964 255 255 255
-0.654497 -0.0803782 0.816362 255 255 255
0.725516 0.513585 -0.513283 255 255 255
0.759787 -0.707428 -0.402407 255 255 255
0.304377 -0.214887 0.156207 255 255 255
0.810462 0.923312 -0.94325 255 255 255
-0.265197 0.293786 0.0229389 255 255 255
-0.724256 0.616883 0.756567 255 255 255
0.40192 0.361559 0.916812 255 255 255
-0.370142 0.909417 0.766374 255 255 255
0.637394 -0.590206 -0.928955 255 255 255
0.797461 0.185095 -0.686885 255 255 255
0.0633823 -0.987997 0.821364 255 255 255
-0.55581 -0.823617 -0.215306 255 255 255
0.342265 -0.194246 0.299151 255 255 255
0.256372 -0.770786 -0.691723 255 255 255
-0.653254 0.720819 0.943665 255 255 255
-0.135658 0.604602 0.691927 255 255 255
-0.89116 -0.131258 -0.357226 255 255 255
-0.716731 -0.427991 0.624425 255 255 255
0.480903 -0.0629802 -0.554542 255 255 255
-0.452249 -0.388818 -0.910365 255 255 255
-0.828661 -0.864615 -0.764544 255 255 255
-0.670343 -0.0700701 0.52875 255 255 255
0.791102 -0.893267 0.330504 255 255 255
0.631771 0.170056 0.948172 255 255 255
-0.553956 0.506988 -0.176209 255 255 255
0.166533 -0.830258 -0.769782 255 255 255
-0.938003 -0.637334 0.981238 255 255 255
-0.650758 0.126199 0.911436 255 255 255
-0.309102 -0.826504 -0.229355 255 255 255
-0.148322 -0.303232 0.23687 255 255 255
0.770303 -0.60102 0.405015 255 255 255
0.0518292 0.862966 0.800689 255 255 255
-0.162231 0.802956 -0.738014 255 255 255
-0.650206 -0.826401 -0.0227919 255 255 255
-0.149679 0.664346 0.924701 255 255 255
0.322463 0.110117 0.556127 255 255 255
-0.834499 -0.837532 0.220062 255 255 255
0.101977 -0.966696 -0.523269 255 255 255
-0.832326 0.132303 -0.866968 255 255 255
-0.627185 0.103062 -0.389954 255 255 255
0.454663 -0.487284 0.0599785 255 255 255
-0.632114 0.405694 -0.666915 255 255 255
-0.738276 -0.526139 0.561924 255 255 255
-0.302111 -0.994502 0.476736 255 255 255
0.77662 0.523195 -0.16746 255 255 255
-0.663472 0.275374 -0.464492 255 255 255
0.567123 -0.34595 0.181395 255 255 255
0.428828 -0.496277 0.0271395 255 255 255
0.335185 0.940068 -0.12954 255 255 255
-0.458601 -0.452392 0.544035 255 255 255
0.396732 0.270803 -0.35988 255 255 255
0.707941 -0.765567 0.580335 255 255 255
0.442615 0.563469 -0.673943 255 255 255
0.334717 0.889406 0.508304 255 255 255
-0.773983 0.242726 -0.1731 255 255 255
0.134799 -0.986603 0.0319781 255 255 255
-0.298797 0.653578 0.93372 255 255 255
-0.896129 0.985529 0.631829 255 255 255
0.998164 0.79 -0.924545 255 255 255
0.785759 -0.778805 -0.980492 255 255 255
-0.626166 0.126046 -0.35043 255 255 255
0.105099 0.602167 -0.751216 255 255 255
0.10718 0.987576 -0.222774 255 255 255
-0.0749412 -0.584333 0.0225093 255 255 255
0.777297 0.707894 0.238882 255 255 255
-0.567022 -0.305614 -0.643825 255 255 255
0.677754 0.205298 -0.140693 255 255 255
-0.281765 0.351297 -0.269412 255 255 255
-0.27203 0.0153647 0.563759 255 255 255
-0.231833 0.793175 0.193787 255 255 255
0.237178 -0.977042 -0.791274 255 255 255
-0.149507 -0.21674 0.514222 255 255 255
-0.547187 0.428033 0.109636 255 255 255
-0.668508 0.651465 -0.784693 255 255 255
0.381144 -0.829889 -0.975639 255 255 255
-0.91073 0.414337 0.637299 255 255 255
-0.39308 0.858184 0.526065 255 255 255
0.879482 -0.979203 0.663895 255 255 255
-0.81094 0.535689 -0.761146 255 255 255
-0.364448 -0.187917 0.81091 255 255 255
-0.725746 0.476284 0.402406 255 255 255
-0.345641 -0.6188 -0.73172 255 255 255
-0.583713 -0.618176 0.857061 255 255 255
-0.332428 0.560002 -0.403053 255 255 255
-0.452776 -0.400079 -0.160031 255 255 255
-0.653797 0.534088 0.703266 255 255 255
-0.841294 -0.9 0.858746 255 255 255
-0.736749 -0.303289 -0.257088 255 255 255
0.181571 0.444464 0.673856 255 255 255
0.806404 -0.101885 -0.761855 255 255 255
-0.126645 0.602452 0.0320667 255 255 255
-0.945834 0.509766 -0.422292 255 255 255
-0.726 -0.799997 0.554843 255 255 255
0.130767 0.501886 0.776201 255 255 255
-0.557153 0.0868071 0.0252054 255 255 255
-0.821029 -0.393466 0.883906 255 255 255
0.688746 0.237321 -0.255267 255 255 255
0.124587 0.424234 -0.118512 255 255 255
0.0111661 0.571913 -0.29631 255 255 255
-0.0855426 -0.180618 0.0709001 255 255 255
-0.778883 0.679345 0.410614 255 255 255
0.339989 -0.420871 0.83109 255 255 255
-0.233793 0.97017 -0.594444 255 255 255
-0.150501 0.660766 -0.581385 255 255 255
0.537282 0.36259 0.614533 255 255 255
0.412261 0.523369 -0.205748 255 255 255
0.416643 -0.0316192 -0.736236 255 255 255
-0.770944 0.819309 0.0795162 255 255 255
0.481315 -0.683496 0.389881 255 255 255
-0.30492 0.406974 0.200604 255 255 255
0.42452 0.427418 -0.973774 255 255 255
0.903408 0.666936 -0.377002 255 255 255
0.276518 0.143725 0.49541 255 255 255
-0.91485 0.259652 0.278918 255 255 255
0.313045 0.854661 -0.444416 255 255 255
0.016505 0.588794 0.998158 255 255 255
-0.302652 0.710974 0.915386 255 255 255
-0.00355328 0.154663 0.97378 255 255 255
0.454271 0.595848 0.0117691 255 255 255
0.881799 -0.616075 -0.973988 255 255 255
0.00812339 0.914079 0.77908 255 255 255
0.254732 0.654157 0.29762 255 255 255
-0.999826 0.97095 -0.669571 255 255 255
0.726072 0.917077 0.436975 255 255 255
-0.0908088 -0.467936 -0.108221 255 255 255
0.125489 0.977571 0.703431 255 255 255
-0.508784 -0.761416 -0.685603 255 255 255
-0.0353983 0.408876 0.25985 255 255 255
0.136158 0.108901 0.639733 255 255 255
0.0809868 -0.244067 -0.177937 255 255 255
0.762118 -0.183375 0.769082 255 255 255
-0.874211 -0.78759 -0.00848198 255 255 255
0.729086 -0.034152 0.809095 255 255 255
-0.288408 0.397037 -0.699174 255 255 255
-0.358676 0.0511561 -0.0964989 255 255 255
0.254898 -0.21396 0.411263 255 255 255
0.776915 -0.622622 0.344868 255 255 255
0.168653 -0.453351 -0.688038 255 255 255
-0.830327 -0.752824 0.969877 255 255 255
-0.381932 0.239825 -0.0087971 255 255 255
-0.883794 0.958111 -0.198836 255 255 255
-0.340074 -0.240994 0.430131 255 255 255
0.350908 -0.303908 -0.205657 255 255 255
-0.76429 0.843513 -0.422897 255 255 255
-0.854365 -0.0679199 -0.584571 255 255 255
0.151962 -0.430145 0.0767524 255 255 255
0.00587985 -0.242751 -0.18215 255 255 255
-0.316296 -0.887049 0.0413803 255 255 255
0.807974 -0.98847 -0.441267 255 255 255
0.560682 -0.637247 0.804826 255 255 255
0.0947522 -0.348448 -0.171671 255 255 255
-0.769652 0.610559 0.682902 255 255 255
0.393487 -0.269726 -0.442104 255 255 255
0.150087 -0.983705 -0.654754 255 255 255
-0.418434 0.962054 -0.0748826 255 255 255
-0.355134 0.0329172 0.07626 255 255 255
-0.601151 0.43477 0.291498 255 255 255
-0.473303 0.876455 -0.931659 255 255 255
0.418309 0.46141 -0.707042 255 255 255
-0.67408 0.751796 -0.343615 255 255 255
0.675745 -0.216946 0.627468 255 255 255
-0.567056 -0.344902 -0.733341 255 255 255
0.0625095 0.263546 -0.373917 255 255 255
0.407513 0.766448 -0.601185 255 255 255
-0.605198 0.855923 0.320841 255 255 255
0.645738 -0.217295 -0.757917 255 255 255
-0.894905 0.967654 0.153432 255 255 255
0.121382 -0.245394 0.153828 255 255 255
-0.31513 0.29297 0.268414 255 255 255
-0.347269 0.388244 -0.34566 255 255 255
0.432601 -0.914831 -0.455994 255 255 255
-0.826982 0.46347 -0.95363 255 255 255
0.216731 -0.0433934 -0.506928 255 255 255
0.872525 0.388942 0.671498 255 255 255
0.939357 0.125358 -0.946817 255 255 255
-0.645002 -0.468469 -0.422216 255 255 255
-0.0222805 -0.620767 0.399629 255 255 255
-0.237445 -0.0775863 -0.80854 255 255 255
0.634155 0.165497 -0.715527 255 255 255
0.970592 -0.754206 0.882458 255 255 255
-0.48361 0.194489 0.512918 255 255 255
0.0303324 0.0712124 -0.901633 255 255 255
0.664814 -0.142143 -0.273536 255 255 255
-0.248194 0.747639 0.184933 255 255 255
0.793379 0.0238849 0.737164 255 255 255
-0.342775 0.56405 0.771144 255 255 255
0.889277 0.688556 -0.0641505 255 255 255
0.791695 0.783332 0.889009 255 255 255
-0.462406 -0.608588 0.750132 255 255 255
0.213898 0.22107 0.82731 255 255 255
0.527717 0.554132 -0.56098 255 255 255
0.163498 0.613553 -0.2142 255 255 255
0.130499 0.392892 -0.312351 255 255 255
0.0220002 -0.551356 -0.281333 255 255 255
0.575557 0.38507 0.367428 255 255 255
-0.722163 0.863848 0.818467 255 255 255
0.814101 -0.673793 0.156296 255 255 255
0.504219 0.556053 -0.849615 255 255 255
-0.480876 0.597561 -0.48992 255 255 255
0.384149 0.94525 -0.933679 255 255 255
0.0159123 0.625954 -0.7337 255 255 255
-0.622878 -0.843087 0.755215 255 255 255
-0.709089 -0.738967 0.736823 255 255 255
-0.497269 -0.0279741 0.909944 255 255 255
0.694062 0.593967 -0.775112 255 255 255
-0.837166 0.361456 0.198959 255 255 255
0.858143 -0.427042 0.698683 255 255 255
0.794128 -0.602714 -0.28347 255 255 255
0.843334 0.341312 -0.858542 255 255 255
-0.967084 -0.951816 0.945242 255 255 255
0.830808 0.971401 0.652242 255 255 255
-0.428462 -0.741322 -0.578964 255 255 255
-0.274282 0.666163 -0.0753017 255 255 255
-0.38832 0.040448 0.104593 255 255 255
0.104412 -0.173358 0.506899 255 255 255
0.34044 -0.0847459 0.286867 255 255 255
-0.159239 -0.483441 0.94608 255 255 255
0.789209 0.512498 0.484279 255 255 255
-0.522813 0.566426 0.721841 255 255 255
0.0404953 0.423975 0.342209 255 255 255
0.862861 0.81407 0.341909 255 255 255
-0.16287 0.647513 0.80349 255 255 255
-0.398675 -0.301482 -0.897232 255 255 255
-0.233003 0.889613 -0.376061 255 255 255
0.00440556 -0.488112 -0.632522 255 255 255
-0.22673 -0.0778563 -0.344823 255 255 255
0.40211 -0.090999 0.109442 255 255 255
0.79587 -0.706464 -0.28273 255 255 255
-0.0438477 0.146138 -0.980691 255 255 255
-0.476406 -0.360618 -0.99741 255 255 255
0.732179 0.759267 0.984016 255 255 255
0.849285 0.276555 -0.0351112 255 255 255
-0.0225211 -0.721975 -0.0493645 255 255 255
0.824445 0.132816 -0.524086 255 255 255
0.334454 0.236502 -0.249729 255 255 255
-0.601083 0.859753 0.495534 255 255 255
-0.561179 -0.903606 -0.353465 255 255 255
-0.939191 -0.9674 0.406716 255 255 255
-0.658779 0.551794 -0.283804 255 255 255
-0.0719764 -0.269999 -0.334395 255 255 255
0.414562 -0.534038 -0.347069 255 255 255
-0.719925 0.287717 -0.00356543 255 255 255
-0.944699 -0.247764 -0.915843 255 255 255
0.0453963 -0.895099 0.3633 255 255 255
0.190695 0.850059 0.488848 255 255 255
-0.350521 -0.0570845 -0.978144 255 255 255
-0.79755 -0.866913 -0.841531 255 255 255
0.250441 0.114998 0.602131 255 255 255
0.146104 0.622411 0.470713 255 255 255
0.26825 -0.425302 -0.757192 255 255 255
-0.687008 0.0804772 -0.285923 255 255 255
0.2056 -0.414662 -0.299825 255 255 255
-0.786036 0.034664 -0.125129 255 255 255
0.181908 0.515365 0.0742977 255 255 255
0.04537 0.293019 0.0329993 255 255 255
0.0593395 -0.636891 -0.455525 255 255 255
-0.659495 0.903557 0.5127 255 255 255
-0.199447 0.48159 -0.668413 255 255 255
0.127311 -0.520407 -0.783786 255 255 255
-0.340091 -0.822416 0.534002 255 255 255
0.156906 -0.474899 0.947229 255 255 255
-0.371257 -0.360978 -0.451257 255 255 255
0.438366 -0.519744 0.297959 255 255 255
-0.529198 0.282991 0.0752363 255 255 255
-0.0720005 -0.855492 -0.614966 255 255 255
-0.953879 -0.00567741 -0.624104 255 255 255
-0.361464 0.324447 0.313436 255 255 255
0.00364817 -0.0957434 0.473395 255 255 255
-0.10275 0.145012 -0.0879342 255 255 255
-0.820063 -0.239972 -0.458827 255 255 255
-0.584234 0.268151 0.372912 255 255 255
0.466075 0.900037 0.393062 255 255 255
0.772651 -0.909035 0.763209 255 255 255
-0.124879 0.289822 0.582431 255 255 255
-0.816149 0.442246 -0.825512 255 255 255
0.103613 -0.577018 -0.335332 255 255 255
-0.45486 -0.319281 0.826207 255 255 255
-0.202845 0.232881 0.00448824 255 255 255
-0.00221716 0.354047 -0.313118 255 255 255
0.994674 0.325084 0.391436 255 255 255
0.565678 0.153721 0.821634 255 255 255
-0.843484 -0.824615 0.716996 255 255 255
-0.103754 -0.0892581 -0.589893 255 255 255
0.297794 -0.531111 -0.75692 255 255 255
0.933867 0.043776 -0.290603 255 255 255
-0.276045 -0.221385 0.913225 255 255 255
0.581866 0.165478 0.718856 255 255 255
-0.523912 -0.955554 -0.256815 255 255 255
0.775227 0.242975 -0.316821 255 255 255
0.40262 0.161517 -0.223942 255 255 255
-0.128478 0.210775 -0.23239 255 255 255
-0.671782 0.33823 -0.0579505 255 255 255
0.879517 0.113179 -0.865304 255 255 255
-0.163008 0.774601 0.322851 255 255 255
0.252453 0.195528 0.712019 255 255 255
-0.982495 -0.820933 0.409614 255 255 255
-0.438313 0.292033 -0.495792 255 255 255
0.593986 0.218623 -0.74552 255 255 255
0.808559 -0.321683 -0.971546 255 255 255
0.681912 0.45094 0.0168897 255 255 255
0.59277 0.496956 -0.496498 255 255 255
-0.831638 -0.156243 -0.240652 255 255 255
0.813871 0.94148 0.317078 255 255 255
-0.677796 0.478721 0.836719 255 255 255
-0.827981 -0.707958 0.486147 255 255 255
0.513344 0.278743 -0.537447 255 255 255
0.484161 -0.550512 0.588381 255 255 255
-0.658035 -0.0640702 0.877354 255 255 255
-0.182555 0.326484 0.0262366 255 255 255
