ply
format ascii 1.0
element vertex 502
property float x
property float y
property float z
property uchar red
property uchar green
property uchar blue
end_header
0 0 0 255 255 255
-0.971408 -0.218327 0.093269 255 255 255
-0.306407 -0.752143 4.54865 0 0 255
-0.288656 -1.594 4.42145 0 0 255
-1.0575 1.58282 5.53529 0 0 255
0.405379 -1.73219 5.64892 0 0 255
-0.0966612 -0.393117 4.9154 0 0 255
-0.6469 0.171074 5.72927 0 0 255
0.945131 -0.155529 5.17819 0 0 255
-0.635888 -0.917416 4.36229 0 0 255
0.399755 -1.56598 5.10521 0 0 255
-0.232939 0.0859898 4.27633 0 0 255
-0.947888 2.09902 5.89895 0 0 255
-0.909895 -0.916843 4.93065 0 0 255
0.43764 0.1933 6.12243 0 0 255
-0.839093 -2.07015 5.14675 0 0 255
-0.773076 1.28408 4.33195 0 0 255
-0.324186 0.246567 5.96407 0 0 255
0.931039 -0.460614 5.15905 0 0 255
0.721723 0.522205 4.96214 0 0 255
-1.0181 -0.0316238 5.7199 0 0 255
0.968536 -1.36119 6.02063 0 0 255
0.666877 0.771725 6.27711 0 0 255
0.593473 0.949039 5.703 0 0 255
-1.07216 1.37921 4.74603 0 0 255
1.04759 0.283969 4.46437 0 0 255
0.49568 -2.09893 4.84979 0 0 255
-1.06222 1.34123 4.99086 0 0 255
-0.595716 -1.16917 5.96253 0 0 255
-0.0961171 -0.233058 5.56654 0 0 255
-0.525133 1.19077 5.89417 0 0 255
-0.0498773 -1.35024 5.88689 0 0 255
-0.146439 1.3263 5.58429 0 0 255
0.815384 2.10886 4.94092 0 0 255
0.0695439 -0.731258 4.6398 0 0 255
-0.294314 -1.07253 5.8807 0 0 255
0.856751 -1.76675 5.05567 0 0 255
-0.0370334 -0.792446 4.24236 0 0 255
-0.752656 1.9599 5.96681 0 0 255
-0.710504 -1.24826 6.29179 0 0 255
-0.393515 1.06624 4.76722 0 0 255
-0.500181 1.14923 6.21733 0 0 255
0.734594 1.94737 4.51315 0 0 255
0.265904 -1.26056 4.53137 0 0 255
-1.01917 1.32349 4.38228 0 0 255
0.972866 -0.120522 4.61341 0 0 255
-1.06324 1.3389 6.03814 0 0 255
0.420894 -0.769857 4.72249 0 0 255
1.06389 1.28284 5.38599 0 0 255
0.985482 -1.19236 6.29344 0 0 255
-0.177893 -1.35133 5.45377 0 0 255
0.287975 -0.575967 6.30787 0 0 255
0.510464 2.08617 5.87903 0 0 255
-0.466513 1.24802 5.80187 0 0 255
0.920378 1.70544 4.55519 0 0 255
-1.05139 -0.790402 5.43311 0 0 255
0.480588 0.192374 4.81487 0 0 255
-0.846405 1.03475 5.48922 0 0 255
0.558552 -2.02842 4.50761 0 0 255
-0.207023 1.03631 6.39181 0 0 255
0.853218 0.627358 4.68087 0 0 255
-0.288704 2.05691 5.7639 0 0 255
-0.623299 1.15671 5.21005 0 0 255
-0.796429 -0.440957 4.63444 0 0 255
-0.276705 -0.86807 5.78624 0 0 255
-0.496809 1.10069 4.38489 0 0 255
0.252554 0.338806 4.84761 0 0 255
1.00325 -0.248977 5.69584 0 0 255
0.151215 -0.680566 5.77825 0 0 255
0.530381 2.10986 6.25867 0 0 255
0.808328 0.586581 5.38996 0 0 255
-0.628311 1.0511 4.98214 0 0 255
-0.185313 -1.98677 4.25465 0 0 255
-0.0821158 -2.03034 5.42398 0 0 255
0.698863 0.156558 4.66571 0 0 255
0.0930238 1.80634 4.77194 0 0 255
0.708658 -1.89552 4.40651 0 0 255
0.515541 1.90972 4.66114 0 0 255
1.02681 0.145317 5.62138 0 0 255
0.535324 0.289925 6.31807 0 0 255
0.0400636 1.62075 6.25388 0 0 255
-0.935574 1.28874 6.06787 0 0 255
-0.430296 0.935572 4.95035 0 0 255
-0.871721 -0.176385 6.17221 0 0 255
-0.72172 1.18236 4.81029 0 0 255
-0.768802 -1.07685 5.20375 0 0 255
0.685573 -1.89417 4.64081 0 0 255
-1.0499 0.0253622 6.19385 0 0 255
0.380363 -1.78409 6.02192 0 0 255
-0.540412 2.05111 5.64972 0 0 255
-0.972412 -1.03017 5.58838 0 0 255
0.852936 -1.44779 5.60931 0 0 255
-0.367931 1.36033 5.1235 0 0 255
0.31913 1.34324 5.26233 0 0 255
-0.231595 0.704612 4.85535 0 0 255
-0.122945 -1.32746 5.65446 0 0 255
0.437476 0.416305 4.57106 0 0 255
-0.504532 -1.83111 5.805 0 0 255
-0.990358 2.00392 5.84774 0 0 255
0.611081 1.59272 5.9904 0 0 255
-0.0889934 -0.535439 4.55563 0 0 255
-0.845988 -1.42578 5.19289 0 0 255
-0.64918 1.32113 4.80932 0 0 255
0.799899 0.0481718 5.3353 0 0 255
0.533432 1.3108 6.14129 0 0 255
0.0606895 -0.690377 4.6827 0 0 255
0.0524716 0.239308 6.07551 0 0 255
-0.74656 -2.09948 4.64156 0 0 255
0.960389 1.56403 4.65653 0 0 255
0.0270413 -1.09861 4.26119 0 0 255
-0.528576 -0.674156 4.76828 0 0 255
-0.78209 0.222297 4.79175 0 0 255
-0.29926 0.725757 4.42545 0 0 255
-0.562695 -2.04704 6.17611 0 0 255
0.26665 -1.97503 5.56953 0 0 255
0.117066 0.86464 6.01066 0 0 255
-0.0107253 -0.82926 5.07698 0 0 255
0.699248 0.619642 5.55309 0 0 255
0.962743 -0.220465 5.68002 0 0 255
-0.425379 0.0225486 4.76791 0 0 255
-0.156783 0.940022 5.13969 0 0 255
-0.886659 -2.0499 6.08628 0 0 255
-0.197148 0.460993 6.03049 0 0 255
0.367095 -0.105341 5.26989 0 0 255
0.118375 0.715209 6.07502 0 0 255
-0.037973 -1.88078 5.80794 0 0 255
-0.116782 -0.498331 4.88058 0 0 255
-0.0383748 -0.954553 5.73102 0 0 255
-0.400965 1.97918 5.75622 0 0 255
-0.772606 1.63231 5.83272 0 0 255
-1.00048 -1.42486 5.11512 0 0 255
-0.970644 -0.0341443 4.47019 0 0 255
-0.188043 -0.859905 4.81446 0 0 255
-0.423582 1.75317 5.41315 0 0 255
-0.98555 1.47092 5.89015 0 0 255
-0.803513 1.59433 5.51915 0 0 255
-0.502635 0.839253 4.52784 0 0 255
-0.322432 -0.219058 4.78629 0 0 255
-0.746199 1.54202 5.92582 0 0 255
0.0204699 1.70847 4.96159 0 0 255
0.308945 1.26899 4.31535 0 0 255
0.748603 0.48 5.0731 0 0 255
0.864753 -0.680397 6.02869 0 0 255
-1.05982 -1.67544 4.83166 0 0 255
-0.629424 -0.897983 4.32748 0 0 255
0.309029 -1.36169 5.27384 0 0 255
-0.318101 -1.01951 5.21988 0 0 255
-0.750329 -1.48047 5.95743 0 0 255
-0.118324 -0.78436 6.08706 0 0 255
0.782046 -0.96867 6.20719 0 0 255
0.25581 -0.317217 5.60017 0 0 255
1.05145 -0.184347 4.94466 0 0 255
0.91353 -0.688387 5.75631 0 0 255
-0.000549923 1.29503 5.03984 0 0 255
-1.03505 -0.389898 5.74018 0 0 255
-0.162708 1.92482 6.23443 0 0 255
-0.774481 -1.76641 5.2401 0 0 255
-1.02271 -0.0450501 4.27542 0 0 255
0.585516 1.00519 4.65161 0 0 255
0.13738 -1.58755 4.50284 0 0 255
0.537527 0.0369866 5.15846 0 0 255
0.384659 0.964672 5.53599 0 0 255
0.701951 -1.23577 5.56398 0 0 255
-0.601261 0.980407 5.64922 0 0 255
-0.811813 -0.292844 6.03044 0 0 255
0.441526 -0.193666 5.2043 0 0 255
0.269711 1.304 5.92474 0 0 255
-0.275102 1.32424 4.68047 0 0 255
0.8351 1.60707 6.1014 0 0 255
-0.559336 -0.420849 4.59662 0 0 255
-0.987099 -0.563398 4.94078 0 0 255
0.0727713 -1.57115 4.7462 0 0 255
-0.476266 0.954321 4.3735 0 0 255
0.167639 0.565955 5.52177 0 0 255
-0.705258 -0.475856 4.84491 0 0 255
-0.642054 0.108655 4.91939 0 0 255
1.02521 0.248743 6.29149 0 0 255
-0.0551094 -1.45802 4.2416 0 0 255
-0.58119 -1.3047 5.044 0 0 255
0.397004 1.28637 6.2963 0 0 255
0.826469 -0.688135 6.23791 0 0 255
-1.05814 1.46864 5.41026 0 0 255
-0.575326 0.274539 5.51638 0 0 255
-1.06461 -0.780314 5.10482 0 0 255
0.947323 1.37126 6.05568 0 0 255
-0.407436 0.763053 4.92254 0 0 255
-0.53216 1.69125 4.37481 0 0 255
-0.598245 -1.82351 5.62119 0 0 255
1.02333 -0.768982 4.44435 0 0 255
-0.232076 0.706101 4.44461 0 0 255
-0.68546 1.54682 5.44295 0 0 255
0.35211 -0.477676 4.91864 0 0 255
0.66867 -0.399482 4.73511 0 0 255
-0.458409 -1.30743 6.04319 0 0 255
0.281207 1.96415 4.80061 0 0 255
0.110158 -0.587683 5.64366 0 0 255
0.0101712 0.090792 4.65308 0 0 255
0.996583 -1.97966 5.87859 0 0 255
0.510657 1.40855 4.71084 0 0 255
-0.693511 1.5415 5.90593 0 0 255
-0.58578 -1.64312 4.81263 0 0 255
0.394783 0.887221 5.67268 0 0 255
-0.519952 0.0267416 6.13256 0 0 255
-0.971896 -0.221345 4.85894 0 0 255
-1.06124 -1.14265 4.98576 0 0 255
0.274073 1.64307 4.36043 0 0 255
-1.00287 -0.169437 6.32572 0 0 255
0.129514 0.437065 4.26522 0 0 255
0.893762 0.848259 4.62417 0 0 255
0.447493 1.88579 5.28399 0 0 255
-1.05882 -0.856443 4.2354 0 0 255
-0.446656 -1.10683 4.77147 0 0 255
0.50682 -0.0267253 4.67037 0 0 255
-0.0720434 1.69675 5.53793 0 0 255
0.756843 1.30515 5.20346 0 0 255
-0.146145 1.64938 5.15606 0 0 255
-0.590682 -1.17903 6.05429 0 0 255
-0.925413 -1.20392 4.84168 0 0 255
-0.804999 -0.288209 4.5716 0 0 255
-0.696827 1.86733 4.45533 0 0 255
0.488609 0.790612 6.09904 0 0 255
0.532545 -0.638481 4.233 0 0 255
-0.201291 1.64571 5.77109 0 0 255
0.967737 -0.947058 4.45311 0 0 255
-0.272896 -1.54738 4.4946 0 0 255
-0.236172 -0.0563496 4.34427 0 0 255
-1.04708 -0.506868 5.41287 0 0 255
-0.0201944 -0.387093 4.77902 0 0 255
0.749865 -1.81999 5.65299 0 0 255
-0.771298 0.241815 5.91793 0 0 255
0.263792 -0.451799 4.33603 0 0 255
0.773866 0.584754 4.35134 0 0 255
0.550639 -1.50546 5.17071 0 0 255
-0.170718 -1.31065 5.62465 0 0 255
0.535242 -0.858426 5.12998 0 0 255
-0.897735 -1.36987 5.98882 0 0 255
0.598118 1.00515 4.44003 0 0 255
0.82857 1.74124 6.1522 0 0 255
0.918422 -0.638133 5.09502 0 0 255
-0.14501 -1.23937 6.06468 0 0 255
-0.545255 1.39357 5.57271 0 0 255
-0.030624 0.972094 4.70866 0 0 255
-0.439914 -0.200056 4.82042 0 0 255
-0.251956 1.07972 5.5094 0 0 255
-0.310572 1.18014 4.76444 0 0 255
0.327588 1.55995 6.02893 0 0 255
0.528185 -0.386449 5.292 0 0 255
-0.356679 -0.953173 5.28906 0 0 255
0.66962 1.42899 4.46676 0 0 255
-0.237804 2.09067 4.76451 0 0 255
0.212836 1.58155 5.76872 0 0 255
-0.695132 1.68604 4.37751 0 0 255
0.495156 -1.26407 4.84684 0 0 255
0.192016 0.548683 5.50696 0 0 255
-0.815999 -0.443081 4.69704 0 0 255
-0.713498 0.532285 4.89899 0 0 255
-0.0103879 -1.18109 4.97546 0 0 255
0.110358 0.573447 5.12872 0 0 255
0.196582 -0.0644081 6.03679 0 0 255
-0.219126 -0.91243 4.81119 0 0 255
-1.0251 1.22998 6.28763 0 0 255
0.551334 -1.46268 4.614 0 0 255
-0.411907 -1.08934 5.7481 0 0 255
0.952966 0.839316 4.52318 0 0 255
0.353936 -0.930441 5.43816 0 0 255
-0.600766 1.76066 6.42391 0 0 255
-0.842894 -2.10643 5.87398 0 0 255
-0.254371 -0.371607 5.86114 0 0 255
0.488195 -1.7669 5.34623 0 0 255
-0.797903 0.246077 5.74079 0 0 255
0.820241 0.938404 5.31744 0 0 255
0.0264397 2.00934 5.89639 0 0 255
0.647149 0.610824 4.80916 0 0 255
-0.243608 -0.0555934 5.32491 0 0 255
-0.339429 -0.179144 6.2552 0 0 255
0.288173 -1.88831 4.57493 0 0 255
0.826294 -0.248209 4.27367 0 0 255
-0.012574 0.294133 6.24068 0 0 255
-0.669992 0.0487005 4.67297 0 0 255
-0.904664 1.20585 6.4152 0 0 255
-0.0307952 -0.120204 4.66818 0 0 255
0.45214 0.0578256 5.46888 0 0 255
-1.02884 0.672125 6.23527 0 0 255
0.307617 0.525162 5.45599 0 0 255
-0.334819 -0.453306 5.93145 0 0 255
-0.0687576 1.80662 4.48776 0 0 255
0.612728 -0.834149 4.7047 0 0 255
0.401539 -1.84904 4.29447 0 0 255
0.284148 0.689538 4.51596 0 0 255
-0.709711 1.4204 6.04152 0 0 255
0.111082 0.57366 4.68181 0 0 255
-0.332844 -1.70838 4.37025 0 0 255
0.959426 -1.46651 4.60062 0 0 255
-0.0130271 -0.478659 6.10217 0 0 255
-0.991516 1.03346 4.70034 0 0 255
-0.788805 -1.10359 4.22167 0 0 255
-0.874063 -1.17829 5.09463 0 0 255
-0.44158 1.09063 4.31685 0 0 255
0.396128 -1.01819 4.56436 0 0 255
0.88491 1.73596 5.2987 0 0 255
-0.0451383 1.73046 5.16645 0 0 255
0.602292 -0.798882 5.32876 0 0 255
-0.965365 1.2189 4.48553 0 0 255
0.725469 1.97128 4.51974 0 0 255
0.519039 -0.263612 6.12945 0 0 255
-0.199781 -1.91617 5.40698 0 0 255
-0.791903 -0.770572 4.49545 0 0 255
1.0051 0.275886 5.08048 0 0 255
0.864044 -0.0987135 5.59605 0 0 255
-1.05842 -1.13294 5.47327 0 0 255
0.142531 1.61324 4.73788 0 0 255
0.964895 1.41669 4.40488 0 0 255
0.373533 -0.16503 4.52783 0 0 255
0.508523 -0.300419 4.77516 0 0 255
0.0549173 -0.219323 6.39267 0 0 255
-0.478935 1.77425 5.00589 0 0 255
-0.589318 -2.02757 6.03699 0 0 255
0.757939 1.16777 6.01782 0 0 255
0.589551 0.409707 5.89469 0 0 255
0.617622 0.00292179 5.6881 0 0 255
-0.566995 1.72892 6.35794 0 0 255
0.245553 0.486658 4.3586 0 0 255
0.743786 1.08632 6.22735 0 0 255
-1.01336 0.164713 5.01079 0 0 255
-0.996329 -0.505566 6.11174 0 0 255
0.527863 -0.382584 5.06436 0 0 255
0.474146 0.434996 5.08239 0 0 255
0.867846 1.90403 4.39214 0 0 255
0.218631 0.632076 5.05766 0 0 255
-0.368916 -0.0547788 4.99277 0 0 255
0.339199 1.97113 6.24838 0 0 255
0.703511 -0.424834 5.30868 0 0 255
0.0714066 -1.7652 5.39723 0 0 255
-0.184673 0.0544685 6.05426 0 0 255
0.493384 1.38026 5.97955 0 0 255
0.180107 0.73578 6.37937 0 0 255
-0.161577 0.276698 4.36102 0 0 255
0.138029 -0.668963 4.90104 0 0 255
-0.367455 -0.606995 5.82556 0 0 255
-0.0589006 1.59766 4.41297 0 0 255
-0.49293 0.138247 5.81631 0 0 255
0.816929 -0.107109 4.32603 0 0 255
-0.731102 2.11158 4.73138 0 0 255
0.404099 -0.203562 5.32489 0 0 255
0.345249 -1.68037 5.28613 0 0 255
0.642808 0.599567 4.28968 0 0 255
-1.0223 1.17125 5.41229 0 0 255
0.894952 1.61716 6.34104 0 0 255
-0.519061 -1.91991 5.31187 0 0 255
-0.209135 -1.4985 4.81608 0 0 255
-0.222678 0.774207 4.87325 0 0 255
-0.068014 -1.0327 6.25218 0 0 255
0.991203 -1.06241 5.42745 0 0 255
-1.04976 0.516557 6.27367 0 0 255
0.465382 1.23281 5.49564 0 0 255
0.295524 -1.60566 4.5294 0 0 255
-0.827435 -2.1247 5.6038 0 0 255
0.512869 2.04277 4.81681 0 0 255
-0.624881 1.75963 4.79431 0 0 255
0.223013 -1.32681 5.12633 0 0 255
0.346314 1.40265 4.83941 0 0 255
-0.623611 1.58458 5.97919 0 0 255
0.751077 0.777701 5.9579 0 0 255
0.429837 -1.30036 5.49952 0 0 255
0.146892 2.01209 4.84165 0 0 255
-0.789157 1.38836 4.84176 0 0 255
-0.677877 1.51934 6.23176 0 0 255
0.600229 0.330852 5.41623 0 0 255
-0.529595 -0.518687 5.80368 0 0 255
0.889501 1.67967 4.40471 0 0 255
0.263671 -2.01527 4.3323 0 0 255
0.951876 0.45605 5.47793 0 0 255
0.495056 -0.520951 6.15775 0 0 255
0.651272 -1.27867 6.23085 0 0 255
0.283258 2.04623 4.6576 0 0 255
0.921683 1.21776 4.42357 0 0 255
0.458601 0.625296 4.48986 0 0 255
0.209885 -1.04944 4.40085 0 0 255
-0.952074 -0.673923 4.76155 0 0 255
-0.495857 0.0715293 4.85843 0 0 255
6.03044e-05 -1.44509 4.71347 0 0 255
-0.88881 1.63307 5.52629 0 0 255
0.871185 1.20447 5.01623 0 0 255
-0.986501 -0.732996 4.72999 0 0 255
0.159268 0.429725 5.64032 0 0 255
-0.449157 0.184901 4.30992 0 0 255
-0.123765 -1.19184 4.36077 0 0 255
-0.821004 -0.722719 4.34615 0 0 255
-0.316945 -0.567965 5.62741 0 0 255
0.414411 -1.17015 5.45935 0 0 255
-0.652611 -0.555572 4.62282 0 0 255
-0.208961 -0.697538 5.34331 0 0 255
0.492465 -0.121354 4.82989 0 0 255
-0.851877 -0.890028 6.31639 0 0 255
0.49014 0.307105 6.09965 0 0 255
0.944575 -1.66409 4.88527 0 0 255
-0.130328 0.9589 5.4399 0 0 255
0.908763 1.89053 5.10405 0 0 255
0.721941 1.38742 5.63484 0 0 255
-0.0584424 -0.807446 4.43678 0 0 255
-0.441001 0.373557 4.50454 0 0 255
0.714116 -1.41795 4.56312 0 0 255
-0.41177 -1.81927 4.86075 0 0 255
-0.99532 -1.59141 6.03056 0 0 255
-0.721889 -0.297916 5.83666 0 0 255
-0.547595 -1.82194 6.29897 0 0 255
0.569323 0.122715 6.0986 0 0 255
-0.448331 -1.1232 4.38478 0 0 255
0.281256 1.99557 5.39659 0 0 255
0.914494 1.20274 6.19348 0 0 255
-0.919544 -0.988739 5.88074 0 0 255
0.519609 -0.481971 6.279 0 0 255
0.277431 0.446513 4.55958 0 0 255
-0.889295 1.45236 4.40117 0 0 255
-0.959006 -1.00484 5.19057 0 0 255
0.254673 -2.03558 5.84235 0 0 255
0.670017 1.38431 5.93517 0 0 255
0.417178 -1.76707 5.64134 0 0 255
0.908836 1.65616 5.89365 0 0 255
0.293677 0.122175 5.01231 0 0 255
0.159693 -1.68912 4.87649 0 0 255
0.4612 -0.901985 4.71421 0 0 255
0.153357 1.2198 5.89695 0 0 255
-0.706965 0.246319 5.16299 0 0 255
1.01558 -1.3725 5.134 0 0 255
0.284172 1.47815 4.37408 0 0 255
-0.328778 1.72251 6.04537 0 0 255
-0.554712 2.00432 5.80863 0 0 255
0.10572 -0.422239 6.14197 0 0 255
0.881094 -0.810481 5.47576 0 0 255
-0.401235 -0.947034 5.78118 0 0 255
0.763131 0.361748 5.94917 0 0 255
0.108708 -0.404821 4.5628 0 0 255
0.0893625 1.93044 5.94619 0 0 255
0.72029 1.58015 5.18234 0 0 255
-0.45048 0.243081 5.05013 0 0 255
0.810585 1.16681 4.66253 0 0 255
0.789133 2.13119 5.9618 0 0 255
-0.198169 1.17891 4.55563 0 0 255
-0.390862 -1.91868 6.2075 0 0 255
0.67913 1.15422 5.8958 0 0 255
0.588703 0.645309 5.20775 0 0 255
-0.38808 -1.29248 6.17088 0 0 255
-0.560926 0.534172 6.14362 0 0 255
-0.129439 -1.49303 4.55809 0 0 255
0.178555 0.913248 5.16253 0 0 255
-1.0429 0.728868 5.99864 0 0 255
-0.320069 1.97749 5.08956 0 0 255
-0.317046 -0.931241 4.70562 0 0 255
-0.324151 -1.7528 4.66015 0 0 255
-0.786261 -1.86329 5.93646 0 0 255
0.443725 -0.351626 5.11295 0 0 255
0.422043 -1.11844 4.22412 0 0 255
0.335245 1.40659 4.97591 0 0 255
0.921208 -0.307838 4.3747 0 0 255
-0.526079 -1.88727 5.49773 0 0 255
0.600166 -0.853685 5.11778 0 0 255
-0.591431 0.165428 5.44156 0 0 255
-0.476436 -0.967847 6.09108 0 0 255
0.186062 -1.69576 5.02983 0 0 255
-0.633069 -0.00540248 5.0306 0 0 255
0.709045 -0.580878 4.80171 0 0 255
0.195981 1.17669 5.63674 0 0 255
-0.66433 -0.904113 5.37009 0 0 255
-1.05209 -0.0566032 5.98076 0 0 255
0.407384 -0.615752 5.3589 0 0 255
-1.01568 -2.07848 5.2506 0 0 255
-0.264395 1.61239 6.07656 0 0 255
-0.479067 -1.18371 4.49826 0 0 255
-0.000466128 -0.887732 5.31666 0 0 255
-0.32799 -0.500379 4.31862 0 0 255
-1.02213 -0.125795 4.75123 0 0 255
0.12004 -1.56361 5.03627 0 0 255
-0.607603 -0.31636 5.59069 0 0 255
-0.2793 1.01402 4.74782 0 0 255
0.126318 -0.494441 4.8578 0 0 255
0.619259 -0.821292 4.67196 0 0 255
0.0380186 -0.510986 4.46918 0 0 255
-0.399331 2.04657 5.74041 0 0 255
0.797996 0.843803 5.65938 0 0 255
-1.05881 -1.45726 4.43023 0 0 255
-1.00267 0.198316 5.76846 0 0 255
-0.596982 -1.76505 6.10331 0 0 255
0.183954 -0.846244 5.63168 0 0 255
-0.635565 -1.51549 5.63688 0 0 255
0.156078 -1.08122 5.12542 0 0 255
-0.955197 0.305155 5.85933 0 0 255
-0.512702 -1.91577 5.0253 0 0 255
0.670902 1.97105 5.72509 0 0 255
-0.116418 -0.242075 4.46002 0 0 255
-0.206253 1.6824 5.5554 0 0 255
-1.00565 0.498324 5.70852 0 0 255
-0.923543 0.527113 5.5183 0 0 255
0.714192 0.418122 6.19933 0 0 255
-0.0725697 0.0631635 5.50614 0 0 255
0.821463 -1.88487 5.90901 0 0 255
0.225612 1.83108 4.33615 0 0 255
0.708945 1.13412 4.29677 0 0 255
-0.296294 -1.82571 5.05403 0 0 255
-0.122456 -1.82572 6.26524 0 0 255
1.01504 0.112278 5.69521 0 0 255
-0.661442 0.484286 5.34507 0 0 255
