ply
format ascii 1.0
element vertex 502
property float x
property float y
property float z
property uchar red
property uchar green
property uchar blue
end_header
0 0 0 255 255 255
-0.96895 -0.209057 0.132025 255 255 255
0.561844 -0.553691 3.54106 0 0 255
0.359647 0.42643 3.06394 0 0 255
-0.638234 0.124165 4.07751 0 0 255
-0.384923 0.885333 3.7625 0 0 255
-0.130475 -0.923166 3.16453 0 0 255
-0.573803 0.0768602 3.65838 0 0 255
0.0960612 1.09214 2.9399 0 0 255
-0.095262 1.28539 4.37896 0 0 255
0.0480696 -1.47493 3.66285 0 0 255
0.723459 1.33695 3.22733 0 0 255
-0.157964 1.11971 3.45292 0 0 255
-0.280482 -1.45828 3.49837 0 0 255
0.441026 -1.04938 3.22158 0 0 255
-0.0190423 1.14611 4.43396 0 0 255
-0.702886 -1.45816 3.67705 0 0 255
-0.590655 0.26197 3.11749 0 0 255
0.732112 0.913273 3.86704 0 0 255
0.264186 1.4059 3.57354 0 0 255
0.593761 -0.689968 4.01636 0 0 255
-0.0953396 -0.643609 3.99479 0 0 255
-0.382024 0.317276 3.66401 0 0 255
-0.689381 -1.24293 4.2299 0 0 255
0.680751 -0.937319 2.90121 0 0 255
-0.358806 1.39662 2.94402 0 0 255
0.266904 -0.527187 3.82894 0 0 255
-0.227375 0.0283956 4.01421 0 0 255
0.594245 1.3908 4.33288 0 0 255
0.385492 0.28892 3.77637 0 0 255
0.11068 -0.630106 3.92194 0 0 255
0.689433 1.28422 4.27421 0 0 255
0.306446 0.587194 3.91537 0 0 255
-0.310034 -0.0485205 3.75194 0 0 255
0.181021 -1.47505 4.16058 0 0 255
0.571562 -0.402325 3.09453 0 0 255
-0.531993 1.34924 3.34614 0 0 255
-0.477422 -0.688686 3.48492 0 0 255
-0.0697877 -1.42349 3.60575 0 0 255
-0.370039 1.03316 3.95393 0 0 255
0.629661 1.40059 4.2519 0 0 255
-0.0457895 0.539458 4.20214 0 0 255
-0.000367987 1.08104 3.87977 0 0 255
0.564435 -0.953916 3.50791 0 0 255
-0.624218 -0.108717 3.63237 0 0 255
-0.309263 -0.129128 3.74113 0 0 255
-0.701003 -1.49013 4.13945 0 0 255
-0.321067 -0.538478 3.43606 0 0 255
-0.221608 -1.11519 3.28838 0 0 255
-0.143012 0.163502 4.37278 0 0 255
-0.0283606 0.39625 4.33591 0 0 255
-0.509662 0.942418 3.60163 0 0 255
-0.0834514 1.41148 3.81379 0 0 255
0.608853 -0.630031 4.37242 0 0 255
0.254927 -0.122511 2.86494 0 0 255
-0.565441 1.0268 4.40365 0 0 255
0.0671173 -1.35274 3.83348 0 0 255
-0.254747 -0.200251 3.33971 0 0 255
0.405698 -0.972491 3.73581 0 0 255
-0.463518 -1.31532 2.96278 0 0 255
0.0430982 0.869325 3.28211 0 0 255
-0.269535 -0.218257 3.17302 0 0 255
-0.35844 0.824684 3.83794 0 0 255
0.467105 0.00856994 2.98709 0 0 255
0.686287 -0.24284 3.6306 0 0 255
-0.0668751 -1.09743 4.41974 0 0 255
0.591254 1.39213 3.31066 0 0 255
-0.248395 -0.962582 3.68753 0 0 255
0.537564 0.190914 4.04925 0 0 255
-0.189178 1.17417 3.49056 0 0 255
-0.693192 -0.301632 3.09476 0 0 255
0.486693 -1.37238 4.13934 0 0 255
0.492421 -0.0299669 4.26995 0 0 255
0.15272 -0.478243 3.201 0 0 255
-0.211332 0.423151 2.94275 0 0 255
0.418166 0.0664437 3.49395 0 0 255
0.392846 -0.451631 3.76114 0 0 255
-0.294383 -0.601384 3.22207 0 0 255
0.476297 -0.689678 2.92509 0 0 255
-0.44653 1.39645 4.37232 0 0 255
-0.341591 0.109141 2.84972 0 0 255
-0.458089 -0.715175 4.21519 0 0 255
-0.000197043 -1.07142 3.82452 0 0 255
-0.0964703 -0.973384 3.6996 0 0 255
0.414151 -0.239583 3.07425 0 0 255
-0.389018 1.26654 3.50233 0 0 255
0.355804 0.850283 3.15002 0 0 255
0.62533 -1.26412 3.1268 0 0 255
0.479368 -0.78737 3.93802 0 0 255
0.0285792 0.00948968 3.34196 0 0 255
0.0657232 -0.0180183 4.33038 0 0 255
0.566929 -0.0649494 3.38853 0 0 255
-0.610908 -1.41747 4.39514 0 0 255
0.348397 -0.272122 2.86499 0 0 255
-0.293626 -0.613301 3.21303 0 0 255
0.125621 -0.0294535 4.44136 0 0 255
-0.653228 -0.411202 3.16181 0 0 255
-0.329076 0.073125 3.3639 0 0 255
-0.719949 0.0806758 3.34448 0 0 255
0.322853 -0.757772 3.4557 0 0 255
-0.0812564 -0.199382 4.15846 0 0 255
-0.500428 -1.47985 3.90513 0 0 255
0.241262 0.45633 3.82378 0 0 255
0.616497 1.18457 4.36171 0 0 255
-0.25115 0.391667 3.03243 0 0 255
-0.676067 -1.35056 3.49817 0 0 255
-0.497411 0.403605 3.4096 0 0 255
0.57848 0.525469 3.50164 0 0 255
0.595409 0.277283 3.18512 0 0 255
0.31706 -1.00341 4.05462 0 0 255
0.43819 1.1899 3.47074 0 0 255
0.0793558 1.25194 3.64596 0 0 255
0.221451 0.413529 3.17944 0 0 255
-0.212435 -1.23935 3.62521 0 0 255
0.2536 0.405355 3.64835 0 0 255
0.405264 -0.630605 3.3268 0 0 255
-0.662127 -1.29614 2.87502 0 0 255
-0.611346 0.365675 3.46653 0 0 255
-0.46412 -1.35063 3.88217 0 0 255
-0.699371 -0.638025 3.18599 0 0 255
0.566003 -0.0397517 4.41061 0 0 255
-0.383037 0.575723 3.66655 0 0 255
0.716333 -0.479834 3.08159 0 0 255
0.674548 0.927395 4.24389 0 0 255
-0.501501 0.0468041 4.04207 0 0 255
-0.652725 1.23083 4.3479 0 0 255
0.00735971 -0.48167 3.35472 0 0 255
0.0375976 0.212759 4.28529 0 0 255
-0.044383 1.23385 3.4217 0 0 255
0.438281 0.538478 3.47884 0 0 255
-0.709328 -1.1195 3.40135 0 0 255
0.123761 0.477776 4.06808 0 0 255
-0.0282082 -0.812689 4.34358 0 0 255
0.646032 -0.429878 4.18229 0 0 255
-0.479169 -0.0214077 2.93334 0 0 255
0.680651 -1.27548 3.22955 0 0 255
0.366453 0.352658 2.95592 0 0 255
0.58112 -1.44253 4.45656 0 0 255
0.328934 -0.398079 3.22148 0 0 255
0.620755 0.970395 3.52235 0 0 255
-0.59498 -0.402262 3.6988 0 0 255
0.303051 -0.190471 3.17414 0 0 255
0.0263705 1.0432 4.03354 0 0 255
-0.169586 -0.240304 3.70783 0 0 255
0.0642374 1.20062 2.94052 0 0 255
-0.089564 -1.49907 4.16338 0 0 255
0.0566315 -1.39391 4.32955 0 0 255
-0.0441608 -0.544621 4.09402 0 0 255
-0.156382 -0.855794 4.23224 0 0 255
-0.508305 -0.355339 4.10011 0 0 255
0.223278 0.859362 3.95164 0 0 255
0.661843 -0.533329 2.9558 0 0 255
0.41494 0.0736988 3.1273 0 0 255
-0.719293 -1.01954 3.21235 0 0 255
0.338382 -0.732221 3.53241 0 0 255
-0.422419 -1.14364 3.81072 0 0 255
0.620039 0.11302 3.96278 0 0 255
0.457037 -0.805034 3.28858 0 0 255
0.699923 0.815661 3.15573 0 0 255
-0.368419 -0.302214 3.68041 0 0 255
-0.0390474 -1.04836 3.01031 0 0 255
-0.110542 1.32536 3.1981 0 0 255
0.501713 0.720871 4.26814 0 0 255
-0.545656 0.617994 3.52825 0 0 255
0.0876235 -0.985873 3.65034 0 0 255
-0.639128 -0.522419 3.76718 0 0 255
0.501749 0.905112 3.78409 0 0 255
0.320672 0.741742 3.27899 0 0 255
-0.335336 1.42749 3.95888 0 0 255
0.481804 1.0342 4.10318 0 0 255
0.413566 -1.4637 4.41626 0 0 255
0.683918 -1.3965 3.14471 0 0 255
-0.623063 0.906462 4.21655 0 0 255
-0.233625 0.553641 3.98152 0 0 255
0.277242 -0.75003 4.24224 0 0 255
-0.528344 -0.361005 4.18545 0 0 255
-0.0258162 0.620098 2.89907 0 0 255
0.387299 -0.434469 4.34549 0 0 255
-0.216151 -1.31752 2.92606 0 0 255
-0.601264 0.860596 3.94692 0 0 255
0.409447 -0.194048 3.92857 0 0 255
0.181994 -1.32784 3.09978 0 0 255
0.391831 -0.0958522 4.1013 0 0 255
-0.676721 -0.165646 3.70189 0 0 255
0.0388267 0.313017 3.53292 0 0 255
0.0545671 -0.395548 3.13595 0 0 255
0.212193 0.313414 4.0799 0 0 255
-0.410855 -1.39936 4.4003 0 0 255
0.000439237 0.771601 3.63024 0 0 255
0.269616 -0.361987 3.87695 0 0 255
0.537296 -1.02555 3.80138 0 0 255
0.396903 -1.36867 3.14774 0 0 255
-0.669163 -1.32103 3.6257 0 0 255
-0.650018 0.194017 4.39252 0 0 255
0.131188 -0.593398 3.18928 0 0 255
-0.077617 -0.635156 4.44061 0 0 255
0.143807 -1.14311 3.48422 0 0 255
-0.39718 0.603658 3.25999 0 0 255
0.618636 0.813853 4.30967 0 0 255
0.354975 1.28964 4.18246 0 0 255
0.412068 0.345399 3.71323 0 0 255
-0.54008 -0.735312 4.43936 0 0 255
0.374084 -0.688349 3.44149 0 0 255
-0.18254 1.1585 4.19251 0 0 255
0.462467 0.142333 3.12778 0 0 255
0.582428 -0.631954 4.3888 0 0 255
-0.268107 -0.899626 4.25796 0 0 255
0.671053 -0.0128112 3.15071 0 0 255
-0.108599 1.18682 2.9334 0 0 255
0.0231179 -1.35249 3.51148 0 0 255
-0.693113 0.23934 3.18401 0 0 255
0.134009 -0.456997 3.62959 0 0 255
-0.183134 0.349842 4.00243 0 0 255
0.293287 -0.326825 3.13904 0 0 255
0.184873 -0.85499 3.5444 0 0 255
0.694904 1.21131 3.99091 0 0 255
-0.0328384 -0.0378987 2.99746 0 0 255
-0.454061 -0.496237 3.42099 0 0 255
-0.484335 0.261352 3.97442 0 0 255
0.368226 1.40661 3.83911 0 0 255
-0.276579 -1.44219 3.54025 0 0 255
0.370325 0.523138 4.15343 0 0 255
0.111928 0.953711 3.02653 0 0 255
-0.342376 1.21472 3.7454 0 0 255
-0.168491 -1.40112 4.31747 0 0 255
0.0287025 0.0765339 4.40092 0 0 255
-0.33762 -0.584557 4.19848 0 0 255
0.525671 0.63656 3.40556 0 0 255
0.654873 1.24191 2.89275 0 0 255
-0.0364278 -0.55138 3.34087 0 0 255
-0.2045 0.971173 2.93664 0 0 255
-0.00886257 -1.27927 4.31686 0 0 255
0.522052 -1.42169 4.1415 0 0 255
-0.331666 1.29645 3.46428 0 0 255
0.0832762 1.35562 3.82662 0 0 255
-0.134302 0.670872 4.09498 0 0 255
-0.597851 0.17121 3.86899 0 0 255
-0.610518 0.784301 4.19001 0 0 255
-0.250173 -0.805554 4.11275 0 0 255
-0.668015 -1.25357 3.27077 0 0 255
0.163318 -0.416029 3.41225 0 0 255
-0.73879 1.25846 4.40917 0 0 255
-0.0170725 -1.37295 3.92298 0 0 255
-0.453636 -0.761373 4.26169 0 0 255
-0.317197 -1.4165 3.56775 0 0 255
-0.483949 -0.581708 4.04888 0 0 255
0.685049 0.642859 3.70536 0 0 255
0.537352 1.11565 3.68116 0 0 255
-0.467169 -0.211218 3.9054 0 0 255
-0.102292 0.614091 3.92845 0 0 255
-0.330703 -0.206063 3.90621 0 0 255
0.178082 1.26812 3.02639 0 0 255
0.180307 0.790099 3.45874 0 0 255
0.0951606 0.0155207 2.93651 0 0 255
0.585285 1.42904 3.19953 0 0 255
0.638605 -1.03572 4.25881 0 0 255
0.735267 0.92951 4.16988 0 0 255
0.165593 0.286699 3.63734 0 0 255
0.18232 -0.545858 3.36394 0 0 255
-0.491227 -0.118239 4.25948 0 0 255
0.469507 1.39447 4.31324 0 0 255
0.103034 0.237108 4.32689 0 0 255
-0.57932 -0.551392 3.64615 0 0 255
-0.113353 1.30498 3.7305 0 0 255
0.213654 0.898988 3.78708 0 0 255
-0.296735 1.44241 3.79105 0 0 255
-0.258197 -0.660047 4.09802 0 0 255
-0.508501 0.784419 4.10573 0 0 255
0.58554 0.844509 2.99158 0 0 255
0.12721 -0.882491 3.65669 0 0 255
0.448059 -1.37079 3.96131 0 0 255
0.154273 0.244697 3.92639 0 0 255
0.524473 -1.44027 3.05442 0 0 255
0.396595 0.188608 3.31885 0 0 255
0.0703737 0.360952 2.92657 0 0 255
0.388776 0.338508 4.14889 0 0 255
0.534011 0.416566 3.90084 0 0 255
0.603801 1.17785 3.6975 0 0 255
0.044005 -0.475139 4.04664 0 0 255
0.236083 0.680343 3.49256 0 0 255
-0.008971 0.21816 4.19398 0 0 255
-0.151595 1.19568 3.66352 0 0 255
0.118115 -0.339113 3.61463 0 0 255
-0.321869 1.29471 3.43525 0 0 255
0.451913 -0.167691 3.35282 0 0 255
-0.0686278 0.437632 3.94974 0 0 255
-0.465247 -0.387387 3.88862 0 0 255
-0.314779 -1.4178 3.71873 0 0 255
0.450806 -0.292911 4.31626 0 0 255
0.393821 -0.713051 3.07292 0 0 255
-0.417223 1.30882 4.35803 0 0 255
0.252816 -0.18856 3.32031 0 0 255
-0.0173782 -0.185474 4.04221 0 0 255
0.691494 -1.4257 3.31395 0 0 255
0.105799 1.42105 4.39539 0 0 255
0.715137 -0.599904 3.50082 0 0 255
0.521948 1.14368 3.03347 0 0 255
0.560188 0.67987 3.96315 0 0 255
0.00936146 0.690351 4.29217 0 0 255
0.0128404 -0.871108 3.04338 0 0 255
0.660726 1.17835 3.66204 0 0 255
-0.698993 0.627167 3.82255 0 0 255
-0.180496 0.738391 3.77621 0 0 255
0.703832 1.17032 3.05048 0 0 255
-0.698638 -0.868114 4.34244 0 0 255
-0.228737 0.432534 4.03625 0 0 255
0.0728384 -1.35186 3.33965 0 0 255
-0.693215 0.116306 4.36474 0 0 255
-0.723215 0.306105 3.22497 0 0 255
0.474847 0.129809 3.12166 0 0 255
0.144042 -1.34326 3.67216 0 0 255
0.633884 -0.186314 3.73906 0 0 255
-0.0921734 0.425446 3.26461 0 0 255
0.316203 -0.625092 3.63426 0 0 255
0.602521 -0.822354 3.74541 0 0 255
0.635647 0.233328 3.36038 0 0 255
0.69063 1.0656 3.87022 0 0 255
-0.371131 0.158642 4.26542 0 0 255
-0.147558 0.450423 3.57283 0 0 255
0.581781 0.105835 3.00829 0 0 255
0.311981 0.137969 3.88627 0 0 255
-0.424391 1.3579 3.55208 0 0 255
-0.601331 0.723327 3.03398 0 0 255
-0.502978 0.49845 3.97892 0 0 255
-0.0188154 -0.0822065 4.26587 0 0 255
0.211833 0.440382 2.96136 0 0 255
0.554005 1.09283 2.92701 0 0 255
0.585935 0.86536 3.32478 0 0 255
-0.575064 1.24973 3.22049 0 0 255
-0.467341 -1.28226 3.30933 0 0 255
0.121538 -0.645001 4.28176 0 0 255
0.294558 -0.0774195 3.56596 0 0 255
-0.344493 0.643271 4.39015 0 0 255
-0.547244 1.04425 3.92943 0 0 255
-0.457552 1.06178 3.33374 0 0 255
0.287634 0.0715178 3.23026 0 0 255
-0.508169 1.07592 3.33339 0 0 255
0.3861 1.11334 4.21577 0 0 255
-0.0314141 0.211827 3.60168 0 0 255
-0.120136 -1.06996 2.9108 0 0 255
0.269835 -0.570673 3.65397 0 0 255
0.382419 -1.34244 3.74321 0 0 255
-0.432459 -0.283271 2.92186 0 0 255
0.218924 0.322581 2.96338 0 0 255
-0.32076 -0.873015 3.07118 0 0 255
-0.312388 0.339435 2.92803 0 0 255
-0.0572716 -0.575128 4.45241 0 0 255
-0.46967 0.230206 2.91677 0 0 255
0.295115 -0.643728 4.11446 0 0 255
0.409967 0.544331 4.10087 0 0 255
0.242573 -0.638603 3.38606 0 0 255
0.247155 0.0971614 3.16077 0 0 255
-0.270801 0.64448 3.105 0 0 255
0.051813 0.421285 2.98066 0 0 255
0.587555 -0.879269 3.14533 0 0 255
-0.154779 0.82805 3.55963 0 0 255
0.148331 -0.909333 2.96663 0 0 255
-0.177774 -0.966022 3.41269 0 0 255
-0.254907 -1.28591 4.34594 0 0 255
0.578066 -0.554063 3.74458 0 0 255
-0.359902 -0.308137 3.59053 0 0 255
-0.358077 0.655982 3.10533 0 0 255
0.647741 1.17959 3.20001 0 0 255
0.135582 0.824377 4.13638 0 0 255
0.576968 -1.18825 3.68249 0 0 255
-0.527696 -0.215274 4.3323 0 0 255
0.151716 -0.295529 4.09589 0 0 255
0.439927 0.503079 3.21258 0 0 255
0.349971 0.193496 3.57561 0 0 255
0.380468 -1.46875 4.07028 0 0 255
0.447305 0.333769 3.42682 0 0 255
0.423848 1.01324 4.32637 0 0 255
0.560071 -0.199767 3.38885 0 0 255
0.42629 -0.927215 4.26138 0 0 255
0.612925 -0.0118692 4.47201 0 0 255
0.143808 0.280644 3.00546 0 0 255
-0.0341563 -1.07853 3.12373 0 0 255
-0.6501 0.246108 3.21372 0 0 255
0.266655 -0.0340331 4.23927 0 0 255
0.058686 0.452138 3.03736 0 0 255
-0.724602 1.2381 3.61911 0 0 255
-0.134873 -0.382753 4.42051 0 0 255
-0.169887 0.93401 3.25177 0 0 255
-0.286374 1.12229 3.56221 0 0 255
0.422798 1.43268 4.21378 0 0 255
0.446589 0.0787788 3.06442 0 0 255
-0.508312 -1.39394 3.49422 0 0 255
0.436581 1.4673 4.45246 0 0 255
-0.694496 1.2028 2.98091 0 0 255
0.24166 1.13222 3.69909 0 0 255
0.33168 0.317938 3.82038 0 0 255
0.53028 -1.22898 3.25438 0 0 255
-0.100055 -1.48962 4.21659 0 0 255
0.20644 -1.26155 3.50522 0 0 255
-0.317261 -0.846573 3.4755 0 0 255
0.574977 -0.0909775 4.13089 0 0 255
0.317579 -0.925731 4.17277 0 0 255
0.457452 1.12073 2.9187 0 0 255
-0.497328 1.33834 3.08475 0 0 255
-0.648371 1.4357 4.26062 0 0 255
0.225772 0.616908 3.05329 0 0 255
-0.427521 1.24988 3.8471 0 0 255
-0.673427 0.615401 4.42599 0 0 255
-0.502105 0.111117 3.29404 0 0 255
-0.746685 -1.02455 4.46638 0 0 255
0.089217 -0.639772 3.71013 0 0 255
-0.520799 1.35859 3.91996 0 0 255
0.578117 -1.32172 3.32519 0 0 255
-0.404615 -0.654849 3.20797 0 0 255
0.0233882 0.236593 3.61495 0 0 255
-0.249006 -1.30588 3.48094 0 0 255
0.173471 1.1283 3.05894 0 0 255
0.558969 0.258341 3.1349 0 0 255
0.533516 0.618708 3.76904 0 0 255
-0.130937 0.724459 4.0141 0 0 255
-0.710021 0.269697 3.29389 0 0 255
0.0851603 -1.24882 4.35153 0 0 255
0.446816 -0.634379 3.21319 0 0 255
-0.3287 -0.488499 3.51513 0 0 255
-0.720206 0.97369 3.48081 0 0 255
0.698654 0.720262 3.31321 0 0 255
-0.280794 0.644428 4.15622 0 0 255
0.539534 -0.823269 3.65303 0 0 255
0.445425 -0.0594947 3.35719 0 0 255
0.58465 -0.491805 3.79128 0 0 255
0.69936 -1.25425 2.98058 0 0 255
-0.737577 0.444494 4.34972 0 0 255
-0.662349 0.796819 3.75404 0 0 255
0.0282142 0.511289 3.2624 0 0 255
0.0952087 0.922801 4.34571 0 0 255
-0.0583697 -1.10361 3.01238 0 0 255
0.365763 -0.320282 3.00401 0 0 255
-0.636573 -0.692701 4.07018 0 0 255
-0.0810217 -0.461561 3.37859 0 0 255
-0.257162 0.700811 2.95694 0 0 255
-0.304647 -0.43593 3.33783 0 0 255
0.464153 0.395878 3.0036 0 0 255
0.61152 -0.241681 3.79857 0 0 255
-0.246022 0.0566353 4.02691 0 0 255
0.610421 0.178891 3.95265 0 0 255
-0.489428 -1.13044 4.33068 0 0 255
-0.453773 -0.471251 3.54061 0 0 255
0.131437 -0.934294 3.18902 0 0 255
0.108473 -0.875558 4.14023 0 0 255
-0.360242 0.837607 3.85479 0 0 255
-0.0072023 1.28216 3.76772 0 0 255
-0.415347 0.349639 3.52943 0 0 255
-0.0735811 -0.0102726 4.2439 0 0 255
0.688238 -0.737296 4.39517 0 0 255
0.502128 0.983405 3.84442 0 0 255
0.620454 -0.688958 3.39517 0 0 255
0.14201 1.13581 3.4376 0 0 255
0.350144 -1.45486 4.12729 0 0 255
-0.200546 0.427335 4.01014 0 0 255
-0.503031 -0.650099 3.0848 0 0 255
-0.493402 0.496368 3.14619 0 0 255
-0.36159 0.830357 4.04826 0 0 255
0.63083 0.193296 3.41427 0 0 255
-0.435398 0.155036 3.92411 0 0 255
-0.368847 -1.37243 3.46496 0 0 255
-0.251441 1.34644 4.12485 0 0 255
-0.151172 0.604758 4.08163 0 0 255
0.0134678 -0.602931 3.15904 0 0 255
0.579963 -0.802038 4.36703 0 0 255
0.273065 -0.242755 4.19868 0 0 255
-0.416492 -1.00803 3.83187 0 0 255
-0.696971 -1.24548 4.11309 0 0 255
-0.0919561 0.772894 3.51559 0 0 255
-0.727669 0.0535837 3.93524 0 0 255
0.368732 0.825505 3.32765 0 0 255
-0.366175 -1.21417 3.3035 0 0 255
0.623622 -1.0209 2.9588 0 0 255
0.502657 -0.273875 3.00329 0 0 255
0.336226 -1.32463 3.21924 0 0 255
-0.290838 0.681934 3.03356 0 0 255
0.289961 0.251641 2.9647 0 0 255
0.651474 -0.337762 3.40863 0 0 255
-0.284342 1.30104 3.96285 0 0 255
-0.591153 1.36288 4.11323 0 0 255
0.23928 0.569789 3.67705 0 0 255
0.398129 1.43276 3.57702 0 0 255
-0.660948 1.23756 3.29942 0 0 255
0.275175 -0.764757 3.42703 0 0 255
-0.498952 0.660909 3.69921 0 0 255
0.355318 0.66632 3.88796 0 0 255
-0.54846 -0.614219 4.3493 0 0 255
0.000174919 -0.9316 4.19708 0 0 255
-0.423686 -0.695604 2.90889 0 0 255
-0.518595 0.941262 3.45151 0 0 255
0.204897 0.0848779 3.15072 0 0 255
-0.374278 1.24157 2.86287 0 0 255
-0.584498 -1.3604 3.40785 0 0 255
0.346844 -1.30593 3.12784 0 0 255
-0.0939649 0.732269 3.90267 0 0 255
-0.318741 -1.22582 4.45612 0 0 255
-0.463473 0.370151 4.01548 0 0 255
-0.215945 1.16611 3.31116 0 0 255
0.157663 0.310204 3.15872 0 0 255
0.186662 0.937868 3.74334 0 0 255
0.370314 1.26524 3.03681 0 0 255
0.0661329 0.300305 3.05615 0 0 255
0.0641461 -1.02401 4.20073 0 0 255
