ply
format ascii 1.0
element vertex 502
property float x
property float y
property float z
property uchar red
property uchar green
property uchar blue
end_header
0 0 0 255 255 255
-0.980612 -0.178357 0.0811676 255 255 255
-0.334872 1.87519 6.15954 0 0 255
0.234463 -1.77952 6.35183 0 0 255
0.2781 -0.286932 5.83216 0 0 255
0.38085 -1.05311 4.49744 0 0 255
0.996767 1.5182 4.92737 0 0 255
-0.92897 1.59592 6.46268 0 0 255
1.01625 -1.17247 4.5859 0 0 255
0.707707 0.467799 4.7136 0 0 255
-0.674349 1.44736 4.83638 0 0 255
-0.0831387 -1.71635 5.50733 0 0 255
0.639371 -1.43816 6.52764 0 0 255
0.644017 -1.93261 6.17028 0 0 255
0.41057 1.045 5.10754 0 0 255
0.890709 -0.240626 5.12616 0 0 255
0.851299 -1.3018 5.75905 0 0 255
0.0277031 1.06403 6.3583 0 0 255
-1.0097 -0.867455 4.46183 0 0 255
0.233085 1.85495 5.98911 0 0 255
0.113805 1.07362 5.2473 0 0 255
-0.0232509 1.46043 5.11066 0 0 255
0.811822 1.3089 4.49777 0 0 255
0.711624 -0.875503 6.42544 0 0 255
0.86448 1.01834 4.41859 0 0 255
0.354385 -0.873812 5.81963 0 0 255
-0.403875 1.07378 5.30455 0 0 255
-0.923121 1.16621 5.50935 0 0 255
0.626349 -0.387372 4.57386 0 0 255
0.772207 -1.15811 4.33213 0 0 255
0.754868 0.221358 4.45052 0 0 255
-0.763407 2.08019 4.43651 0 0 255
-0.289762 1.22564 6.03873 0 0 255
0.613658 1.14603 6.00188 0 0 255
-0.608444 -0.680321 4.99297 0 0 255
-1.04985 -1.59163 6.03944 0 0 255
-0.124789 1.29042 5.19653 0 0 255
0.0272988 1.21231 6.33107 0 0 255
0.248248 0.0226122 5.70063 0 0 255
-0.104625 0.696926 5.32782 0 0 255
1.01422 1.91326 6.38726 0 0 255
-0.752074 -0.0630351 5.08349 0 0 255
0.436204 0.170219 5.57499 0 0 255
-0.00117579 -0.273959 6.14517 0 0 255
-0.464055 -1.00111 6.44893 0 0 255
0.0928355 -2.1598 6.09298 0 0 255
-1.01647 1.64983 4.96433 0 0 255
-0.672194 -1.48562 6.31496 0 0 255
-0.918977 -0.902495 4.59017 0 0 255
-0.775697 1.01742 4.7511 0 0 255
0.831106 -1.89486 4.90373 0 0 255
-0.0287942 0.172186 6.39325 0 0 255
-0.80666 -1.54789 5.53384 0 0 255
0.444267 2.1303 5.68709 0 0 255
0.658126 -2.12257 6.17707 0 0 255
-0.376482 2.00376 5.08473 0 0 255
0.335671 -1.5867 5.31554 0 0 255
0.99652 -1.88331 5.59066 0 0 255
0.715667 1.23717 5.31206 0 0 255
0.0888052 -0.243403 5.12253 0 0 255
0.421521 1.3679 5.24176 0 0 255
-1.07615 -1.72031 4.76132 0 0 255
0.763091 0.57742 4.74348 0 0 255
0.826071 2.02993 4.46956 0 0 255
0.456245 2.07835 4.66373 0 0 255
0.0822332 -1.95391 5.4185 0 0 255
-0.972609 -1.51327 4.39005 0 0 255
-0.197723 -0.143283 5.05488 0 0 255
0.966085 1.17665 5.41816 0 0 255
0.62518 1.51254 6.38827 0 0 255
0.338345 -0.0862517 5.02358 0 0 255
-0.853072 0.00402182 5.76576 0 0 255
0.86525 -1.42993 5.94583 0 0 255
0.623809 1.11513 5.12557 0 0 255
-0.57647 0.427775 5.08671 0 0 255
-0.0928069 -1.13136 6.11473 0 0 255
-0.444616 0.0808496 6.00923 0 0 255
-0.674071 0.373971 5.84099 0 0 255
0.030451 0.651446 4.86321 0 0 255
-0.193393 -1.43502 5.91048 0 0 255
-0.885824 1.33954 5.42409 0 0 255
-0.781895 1.78322 5.20118 0 0 255
-0.207492 -1.94647 5.96763 0 0 255
0.25094 -0.0531755 4.80648 0 0 255
1.03049 1.27156 5.0949 0 0 255
0.970581 0.743547 5.51254 0 0 255
-0.221399 0.827944 4.42641 0 0 255
1.02538 2.09279 4.24673 0 0 255
-0.413743 0.967615 5.27623 0 0 255
0.541106 0.475785 5.78445 0 0 255
0.756288 -1.17688 6.44164 0 0 255
0.0811791 -1.71807 4.6803 0 0 255
0.144152 1.91704 6.03684 0 0 255
0.120495 2.00614 5.60814 0 0 255
0.852941 -0.973708 6.22945 0 0 255
0.634383 -1.06986 5.11701 0 0 255
-0.660477 -1.40243 4.6743 0 0 255
-0.78052 -0.597118 4.43231 0 0 255
0.589647 -0.0255253 5.89667 0 0 255
0.224436 -0.344968 5.41972 0 0 255
0.192619 1.16149 4.67618 0 0 255
-1.02023 0.783728 6.59839 0 0 255
-0.302889 -1.36012 4.64021 0 0 255
-0.704196 1.53386 5.57284 0 0 255
-0.816075 1.4905 5.51518 0 0 255
0.147549 1.65529 4.87111 0 0 255
0.173413 1.70846 5.33691 0 0 255
-0.283327 -0.0848881 5.9052 0 0 255
0.278879 -1.74933 5.8311 0 0 255
-0.336656 -1.68948 5.96594 0 0 255
-0.166847 -0.73089 6.42564 0 0 255
0.0383784 0.765777 5.87379 0 0 255
0.0426602 0.574619 4.96427 0 0 255
-0.999022 1.26453 4.98825 0 0 255
0.206671 -0.561709 5.28904 0 0 255
-0.237464 0.867367 5.45181 0 0 255
-0.774691 1.9395 4.94093 0 0 255
0.351405 -0.120743 4.76279 0 0 255
-0.609681 1.03967 4.66658 0 0 255
0.830158 -2.00117 5.61734 0 0 255
0.0956442 1.21146 5.55182 0 0 255
0.528175 -1.06621 6.58043 0 0 255
0.324021 1.162 5.13964 0 0 255
-0.50317 2.02703 6.24262 0 0 255
0.369891 -0.392316 5.00247 0 0 255
-0.802673 -0.914619 5.50318 0 0 255
0.473737 -1.6579 6.41027 0 0 255
0.236716 1.50527 6.06315 0 0 255
-0.814308 2.10846 5.34167 0 0 255
-0.472031 -1.5776 5.29634 0 0 255
-0.29149 0.168471 5.34341 0 0 255
0.0538642 1.94945 4.21851 0 0 255
-0.104376 -1.00347 4.35863 0 0 255
0.620514 -0.446235 6.07829 0 0 255
-0.376626 0.697287 5.0979 0 0 255
0.987371 0.681592 4.98943 0 0 255
-0.37451 -1.85364 5.56408 0 0 255
0.0689618 1.98726 5.25834 0 0 255
-0.27886 2.098 4.56272 0 0 255
-0.245156 0.504632 4.67387 0 0 255
0.13019 -0.610561 4.61674 0 0 255
-0.0526688 -1.59565 6.14878 0 0 255
-0.586641 -2.10671 4.91086 0 0 255
-0.106093 2.02753 5.34025 0 0 255
-0.779785 0.0409554 5.18976 0 0 255
0.718581 1.45822 4.59195 0 0 255
0.453451 -1.22157 4.53665 0 0 255
0.661875 -0.109035 5.6402 0 0 255
0.160831 0.554207 4.66205 0 0 255
0.747889 -0.532005 6.14694 0 0 255
-0.991952 0.280047 6.42593 0 0 255
-0.709179 -0.9587 6.39554 0 0 255
0.850346 0.415439 5.75553 0 0 255
0.462518 -1.02 5.31166 0 0 255
-0.595055 -1.35404 4.41559 0 0 255
-0.731297 -0.0705921 5.08815 0 0 255
0.687431 1.62041 4.7869 0 0 255
0.863536 -1.87494 5.67491 0 0 255
-0.290011 -0.909086 5.56448 0 0 255
0.0382473 -0.326359 4.44972 0 0 255
-0.20614 0.592064 4.29409 0 0 255
0.463326 0.35036 5.60232 0 0 255
1.00335 -1.20827 6.23506 0 0 255
0.825399 -1.57211 5.93469 0 0 255
-0.29683 -0.0419554 5.05099 0 0 255
1.03878 -0.0258737 5.30679 0 0 255
0.46304 2.10308 6.08504 0 0 255
-0.887321 1.69192 5.02904 0 0 255
-0.307848 -0.602077 4.87696 0 0 255
1.06699 -1.40048 5.99108 0 0 255
-0.732732 0.540824 5.02302 0 0 255
0.761353 -0.652585 5.64616 0 0 255
0.651484 1.08225 5.25333 0 0 255
-0.40464 -1.94202 4.9025 0 0 255
0.758496 -1.64524 4.91412 0 0 255
-0.109281 0.510574 5.5335 0 0 255
-0.202636 -1.72034 5.49018 0 0 255
0.141108 0.349236 6.5536 0 0 255
0.958342 -1.89044 5.95772 0 0 255
-0.364842 0.110358 6.46146 0 0 255
0.132116 0.366112 4.33315 0 0 255
-0.391832 1.24456 5.13545 0 0 255
-0.913874 -0.533758 6.00387 0 0 255
0.475183 -0.727381 5.61471 0 0 255
-0.479043 1.75849 6.09891 0 0 255
0.357872 -1.75378 5.48536 0 0 255
-1.08455 0.194455 5.86613 0 0 255
0.165522 0.00060397 6.34922 0 0 255
0.751854 -0.935818 5.67117 0 0 255
0.431232 -2.11741 4.50612 0 0 255
-0.18011 1.81272 5.91009 0 0 255
0.731566 0.590142 5.42796 0 0 255
-0.977947 0.536291 5.28413 0 0 255
-0.575919 1.34525 4.90109 0 0 255
-0.954572 1.9211 4.25824 0 0 255
0.601876 1.57017 4.69173 0 0 255
-0.0233216 0.664729 5.3646 0 0 255
0.952469 -1.10521 4.6603 0 0 255
-0.264619 -0.358745 6.3949 0 0 255
0.408432 -0.744757 4.58884 0 0 255
-1.06884 -1.04604 5.40342 0 0 255
-0.972803 -0.981933 6.4805 0 0 255
-0.914169 -1.18185 5.18911 0 0 255
-0.303825 2.07823 4.22049 0 0 255
-0.0129045 -0.591281 5.69533 0 0 255
-0.525208 -1.74468 5.14178 0 0 255
-1.0015 -0.508399 5.23195 0 0 255
-0.795888 -2.19315 6.54164 0 0 255
-0.804639 0.461276 5.51713 0 0 255
-0.159113 -0.429683 5.63566 0 0 255
-0.78834 -0.826039 6.14366 0 0 255
0.31783 -1.75385 5.41669 0 0 255
0.644022 -1.16003 5.29302 0 0 255
-0.396583 1.71537 4.91687 0 0 255
-0.853988 -0.119434 5.68811 0 0 255
-0.214982 0.718522 6.56157 0 0 255
-0.369082 1.36735 4.58011 0 0 255
-0.487084 0.896592 5.32247 0 0 255
-0.150194 1.1903 4.59342 0 0 255
1.00951 1.17621 5.87869 0 0 255
-0.503263 1.68812 6.24431 0 0 255
-0.373796 -0.312674 6.35317 0 0 255
0.501873 0.191808 5.37819 0 0 255
-0.0394695 0.897047 5.95969 0 0 255
0.792918 -0.345637 4.67618 0 0 255
0.618105 -0.934434 5.57262 0 0 255
0.506345 1.65394 4.48841 0 0 255
-0.182416 -1.68598 6.45962 0 0 255
0.860252 1.43164 6.38529 0 0 255
-0.936589 -0.6023 6.15495 0 0 255
0.95419 0.955948 4.48021 0 0 255
-0.64618 -1.56137 5.60915 0 0 255
0.419603 -1.32561 4.38661 0 0 255
0.734127 -2.10868 4.82316 0 0 255
-0.745913 1.0213 4.44908 0 0 255
0.593258 2.01823 6.06584 0 0 255
0.0971219 0.849101 4.99139 0 0 255
-0.973941 0.935018 4.86543 0 0 255
0.03449 -1.31898 5.21932 0 0 255
-0.0128346 -1.70433 6.20701 0 0 255
0.292107 1.46962 6.09895 0 0 255
0.176546 -1.0034 4.28063 0 0 255
-1.09386 -0.364011 6.05767 0 0 255
0.421272 -1.94495 4.96546 0 0 255
-0.644546 -0.82109 5.11051 0 0 255
0.813305 0.195877 4.92608 0 0 255
1.04761 0.160717 4.86929 0 0 255
-1.0029 -0.19596 4.4308 0 0 255
0.816975 -0.248045 5.78607 0 0 255
-0.118487 1.12934 6.02351 0 0 255
-0.462301 0.761957 4.81646 0 0 255
0.208729 -0.585317 6.01784 0 0 255
0.0869502 -0.434577 5.73019 0 0 255
-0.569966 -1.92399 6.23906 0 0 255
-0.231381 0.825572 4.61894 0 0 255
0.838475 1.35313 5.7583 0 0 255
-0.317641 -2.18455 5.22616 0 0 255
-0.405358 -0.301347 4.65679 0 0 255
-0.252263 -0.862368 5.27993 0 0 255
0.345791 0.463558 5.14503 0 0 255
0.726202 0.830185 5.96554 0 0 255
0.100192 -1.29883 4.58353 0 0 255
0.51796 0.529292 5.29441 0 0 255
-0.428534 2.08882 6.13368 0 0 255
-0.161001 1.64283 5.66853 0 0 255
0.498979 0.298922 4.58989 0 0 255
0.221718 0.520993 4.65531 0 0 255
0.572805 -0.746788 4.54935 0 0 255
0.525529 0.283465 5.89895 0 0 255
0.212197 1.04565 6.13288 0 0 255
0.427032 -0.891633 4.57405 0 0 255
0.714352 -0.563355 6.20479 0 0 255
0.0386858 1.69275 5.98389 0 0 255
-0.281725 1.55516 5.62092 0 0 255
-1.06956 -2.12558 5.85661 0 0 255
-0.210704 2.02915 5.34556 0 0 255
0.535242 0.667687 5.73899 0 0 255
-1.08246 -1.34225 5.86179 0 0 255
0.58055 -1.23481 5.68295 0 0 255
-0.522561 -0.792784 4.4506 0 0 255
-0.858551 0.26308 4.99652 0 0 255
0.810377 1.52549 6.21209 0 0 255
-0.488311 -0.239378 5.90157 0 0 255
0.455445 2.08485 5.98981 0 0 255
-0.190776 0.419227 5.12706 0 0 255
0.768553 0.419587 4.47636 0 0 255
-0.267324 -1.82589 4.3946 0 0 255
0.450544 1.60195 6.47133 0 0 255
0.985336 0.0818204 4.58014 0 0 255
0.630006 -0.907932 4.46328 0 0 255
0.491279 0.675003 4.70735 0 0 255
-0.978753 -1.11468 5.42006 0 0 255
0.250997 -1.49206 6.41242 0 0 255
0.484924 0.157948 4.84893 0 0 255
-0.296074 -1.85861 5.24162 0 0 255
-0.982245 2.1042 6.26725 0 0 255
0.302713 1.59179 4.22641 0 0 255
-0.667993 0.499235 5.68189 0 0 255
0.797837 1.79943 5.91722 0 0 255
-0.4553 -1.43164 4.454 0 0 255
0.952977 0.755591 4.97934 0 0 255
0.207713 0.313674 4.34953 0 0 255
-0.937283 1.70291 5.74182 0 0 255
0.869909 1.74252 6.06573 0 0 255
0.336364 -0.724693 5.95003 0 0 255
-0.876182 -2.10001 4.38348 0 0 255
0.180203 -0.226989 5.53519 0 0 255
0.361379 -1.5863 4.61619 0 0 255
-0.674776 0.968162 4.42633 0 0 255
0.0695505 -2.0311 5.38065 0 0 255
0.323927 1.63381 5.52249 0 0 255
0.392331 1.69619 6.23197 0 0 255
3.85095e-05 -1.32663 4.35813 0 0 255
0.737291 0.885185 5.65309 0 0 255
-0.91713 -1.2904 4.30424 0 0 255
-0.91681 -1.65312 5.94012 0 0 255
-1.03012 0.0599952 6.31228 0 0 255
0.657387 -1.0673 5.70446 0 0 255
0.484113 1.1447 6.18872 0 0 255
-0.394779 1.1741 5.83977 0 0 255
-0.758609 -0.399102 4.98314 0 0 255
0.716978 -1.83645 5.78617 0 0 255
-0.792366 1.15732 5.78508 0 0 255
0.801469 -0.689705 5.12106 0 0 255
-0.631706 2.15206 6.17079 0 0 255
-0.878427 -0.0565215 5.60697 0 0 255
0.113708 -1.46988 5.84473 0 0 255
0.312361 -2.07084 5.32186 0 0 255
0.913262 0.600665 5.18938 0 0 255
-0.292276 0.258172 4.46475 0 0 255
-0.278658 0.322662 6.39707 0 0 255
0.167227 0.196306 5.16009 0 0 255
1.0076 -0.3734 5.03707 0 0 255
-0.0398105 0.7345 6.00602 0 0 255
1.06627 -0.750639 5.83731 0 0 255
0.0120661 1.79389 5.88274 0 0 255
0.378251 -0.187073 4.83832 0 0 255
-0.23931 0.923735 5.22963 0 0 255
0.705235 0.50258 6.23975 0 0 255
0.358898 0.011932 4.59043 0 0 255
-0.0617904 -1.7726 5.69889 0 0 255
0.884739 -1.3288 6.56148 0 0 255
-0.679049 0.807453 5.19831 0 0 255
0.675833 -1.1066 4.64451 0 0 255
0.0299199 -0.0465539 4.71985 0 0 255
-0.263431 -0.887046 6.37702 0 0 255
-0.000731171 -0.466413 5.6965 0 0 255
-0.717554 1.03289 5.67752 0 0 255
-0.729491 -1.31966 4.86171 0 0 255
-1.00136 -0.460761 5.61438 0 0 255
-1.01102 -0.200368 5.95515 0 0 255
-0.339004 1.98463 5.55575 0 0 255
0.841856 0.434703 6.35722 0 0 255
0.0340047 -0.583561 5.28897 0 0 255
0.823445 1.11427 6.01614 0 0 255
0.778201 -1.95138 4.90294 0 0 255
0.604854 -0.772794 5.9185 0 0 255
0.0777894 -1.40359 5.98572 0 0 255
0.434093 -1.3124 4.99465 0 0 255
0.0254148 1.57044 6.05342 0 0 255
-0.925473 -1.38641 6.25894 0 0 255
-0.856706 0.177641 4.57364 0 0 255
0.966629 -0.171016 5.70331 0 0 255
0.303896 0.413137 5.38734 0 0 255
1.05116 -0.926514 5.09258 0 0 255
0.149918 0.564349 6.29511 0 0 255
-0.562956 -1.75643 4.71367 0 0 255
0.725475 1.53529 5.56165 0 0 255
0.575864 -1.28616 4.41484 0 0 255
0.585768 -1.49858 4.56816 0 0 255
0.693585 -0.00924556 4.98721 0 0 255
-0.34953 -1.4827 5.17865 0 0 255
0.281265 -0.481665 4.62281 0 0 255
0.391686 0.559632 6.43503 0 0 255
0.206807 0.790169 4.76764 0 0 255
-0.178632 0.651904 5.84473 0 0 255
-0.977061 0.838965 5.98509 0 0 255
0.598932 1.55207 5.85851 0 0 255
0.403568 1.08291 4.64608 0 0 255
0.492586 -1.69063 6.12463 0 0 255
-0.722823 -0.976875 4.8887 0 0 255
-0.108958 -1.89095 5.04463 0 0 255
0.0566184 -0.828654 5.23038 0 0 255
0.630683 1.99026 4.83877 0 0 255
-0.895431 -0.763364 6.32821 0 0 255
0.0269297 -0.106318 4.26831 0 0 255
-0.154914 1.17946 4.43538 0 0 255
-0.392726 0.0991147 6.44898 0 0 255
-0.566807 0.224542 4.6528 0 0 255
-0.515589 0.568532 4.46566 0 0 255
0.864061 -2.03583 6.4088 0 0 255
0.950203 -0.989109 4.28381 0 0 255
0.36769 -0.61719 5.45454 0 0 255
0.726448 -0.713771 6.30319 0 0 255
0.626292 -1.74771 4.36215 0 0 255
-0.382866 -1.58172 5.68246 0 0 255
-0.103445 -2.19157 5.96115 0 0 255
-0.058634 0.966723 4.49035 0 0 255
-0.430595 -1.39636 5.49788 0 0 255
0.104221 2.05733 5.34291 0 0 255
-0.799187 -1.28912 6.332 0 0 255
-0.696187 1.69962 6.4014 0 0 255
0.322221 1.44071 5.94852 0 0 255
1.00612 -1.51881 4.82183 0 0 255
0.910026 1.51292 5.23265 0 0 255
-0.764232 0.324476 5.48986 0 0 255
1.02971 0.0142091 6.31607 0 0 255
0.87051 -1.90371 4.4003 0 0 255
0.432115 1.23061 4.32117 0 0 255
-0.205356 -1.06257 4.73338 0 0 255
-0.741898 1.35247 4.73425 0 0 255
0.31514 1.35666 4.39377 0 0 255
0.482359 0.581513 5.42057 0 0 255
0.394464 2.03182 4.53672 0 0 255
-0.901 -0.664125 6.00477 0 0 255
0.972518 -0.682452 4.75948 0 0 255
0.512728 0.751553 6.38047 0 0 255
-0.521762 1.75361 4.79676 0 0 255
-0.81841 -0.49667 5.45448 0 0 255
0.494081 -1.24379 6.13599 0 0 255
0.736404 -0.09892 5.05591 0 0 255
-0.81095 -0.449161 4.33466 0 0 255
0.260284 -0.248719 4.61089 0 0 255
-0.208664 -0.64412 4.79221 0 0 255
-0.279283 -0.68664 5.57236 0 0 255
-0.6868 0.592497 5.63433 0 0 255
0.872766 1.34744 5.73621 0 0 255
-0.66761 -0.25073 4.87019 0 0 255
-0.687965 0.976016 6.1934 0 0 255
0.633246 -2.11483 6.19919 0 0 255
-0.0315418 -0.461812 4.83039 0 0 255
-0.367999 1.45949 6.03468 0 0 255
0.689388 2.06222 4.33915 0 0 255
0.249843 0.0614036 4.4319 0 0 255
1.00201 1.01392 5.98498 0 0 255
-0.187886 0.433002 5.06607 0 0 255
0.288555 -2.07963 4.57988 0 0 255
-1.09321 1.43684 6.43524 0 0 255
-0.209774 0.252618 6.00686 0 0 255
-0.566561 -2.11593 5.31874 0 0 255
1.0299 -1.19398 4.68982 0 0 255
0.313405 0.153386 6.27988 0 0 255
0.473601 1.96403 5.89583 0 0 255
0.846109 -0.391275 4.74733 0 0 255
-0.26386 -1.47534 4.85152 0 0 255
-0.215887 -1.54019 4.95961 0 0 255
-0.144324 -1.60005 6.03384 0 0 255
-0.665968 0.61999 5.77135 0 0 255
0.11515 -1.34572 4.43074 0 0 255
-1.02237 -1.15021 4.60914 0 0 255
-0.255558 -0.135378 5.32965 0 0 255
0.871991 -0.056393 4.45845 0 0 255
-0.278984 -2.20202 5.82683 0 0 255
0.415416 -0.16641 4.55343 0 0 255
0.561042 -1.0682 4.78311 0 0 255
-0.591276 1.89415 6.03063 0 0 255
0.302316 0.205979 4.96887 0 0 255
0.527252 0.385433 4.49793 0 0 255
-0.294816 -0.761943 5.41462 0 0 255
-0.000291764 1.58137 6.48899 0 0 255
-1.00496 -2.1292 5.37687 0 0 255
0.303066 -0.679907 5.81943 0 0 255
-0.911922 1.41269 5.30209 0 0 255
-0.581549 0.479568 5.24402 0 0 255
-0.102486 0.535211 5.18136 0 0 255
1.00297 -0.427013 4.71028 0 0 255
0.124575 1.51032 4.78681 0 0 255
-0.823669 1.66097 4.61291 0 0 255
0.422052 -0.75943 4.31495 0 0 255
0.381331 0.00475894 6.06238 0 0 255
-0.479661 1.76492 5.49281 0 0 255
-0.233168 1.81495 5.63464 0 0 255
1.04682 -1.00351 5.01575 0 0 255
0.18124 0.274034 5.96538 0 0 255
0.599776 -0.490813 4.92979 0 0 255
0.471954 1.09285 4.61687 0 0 255
-0.955798 0.602882 5.29219 0 0 255
-0.799324 -0.936477 6.33872 0 0 255
0.887828 -1.95007 4.97906 0 0 255
-0.0341196 -0.170588 5.23153 0 0 255
-0.975057 1.12854 5.74496 0 0 255
0.540281 -1.74222 5.51875 0 0 255
0.690898 1.84766 4.54194 0 0 255
-0.100025 -0.729099 5.71402 0 0 255
0.630529 -0.0238794 6.04673 0 0 255
-0.890503 -0.669834 5.61033 0 0 255
0.299588 -0.806915 5.99599 0 0 255
-1.06933 -0.643245 5.34058 0 0 255
0.460526 0.0701307 4.70488 0 0 255
0.360532 -1.82737 5.93573 0 0 255
-0.524449 -0.517122 5.12218 0 0 255
-0.08491 1.11815 4.83443 0 0 255
0.444669 1.88643 4.54443 0 0 255
-0.982601 1.30603 5.86274 0 0 255
-0.0292409 1.39474 4.45229 0 0 255
-0.583402 0.15095 6.0888 0 0 255
0.100302 1.4562 5.81012 0 0 255
0.214912 1.03424 5.51147 0 0 255
0.988325 1.97587 5.28578 0 0 255
0.470333 0.91393 5.28912 0 0 255
-0.584872 -1.44785 4.8932 0 0 255
0.913992 -0.784223 5.39122 0 0 255
