ply
format ascii 1.0
element vertex 502
property float x
property float y
property float z
property uchar red
property uchar green
property uchar blue
end_header
0 0 0 255 255 255
-0.961783 -0.252502 0.105909 255 255 255
-0.530933 -0.824774 5.55862 0 0 255
0.247562 -1.77403 6.01098 0 0 255
0.359677 0.57489 6.3894 0 0 255
0.476877 -1.18573 4.88135 0 0 255
-0.0981458 -1.0428 5.64338 0 0 255
0.000855144 1.39614 4.87549 0 0 255
-0.410508 -1.51582 4.3887 0 0 255
-0.00935816 0.830367 4.44736 0 0 255
-0.0829165 -1.61883 5.47058 0 0 255
-0.0797784 -1.75808 4.59366 0 0 255
-1.03024 -2.02851 5.45017 0 0 255
-0.554095 -0.307356 4.81732 0 0 255
0.471416 -1.98252 6.39117 0 0 255
-0.822774 1.89206 5.40901 0 0 255
0.205249 -1.43638 4.71755 0 0 255
-0.000237452 -1.05285 5.9847 0 0 255
-0.735656 1.17833 4.97979 0 0 255
0.38817 1.29326 6.38662 0 0 255
-1.05449 0.878263 5.00481 0 0 255
0.259102 2.13774 4.73881 0 0 255
0.151401 -1.03519 5.81245 0 0 255
-0.590069 -0.0498431 4.31414 0 0 255
-0.178077 0.327633 6.32243 0 0 255
0.466588 -1.12576 4.6666 0 0 255
-0.910494 -0.595857 5.58571 0 0 255
0.469748 1.16552 5.69349 0 0 255
0.328519 -0.71334 5.21385 0 0 255
0.571106 -0.855147 6.26139 0 0 255
-0.754765 -0.602724 5.11054 0 0 255
0.919035 -0.0321316 5.35553 0 0 255
0.802829 -0.0533204 5.28267 0 0 255
-0.121719 0.268765 6.27922 0 0 255
-0.575123 -2.07361 4.49067 0 0 255
-0.434927 1.44317 4.548 0 0 255
0.669729 -1.63571 4.28296 0 0 255
-1.04377 0.0840136 4.95253 0 0 255
-0.930129 -0.134835 5.95168 0 0 255
0.637917 0.402335 4.38359 0 0 255
0.332911 -1.93735 5.46091 0 0 255
-0.434178 0.24302 6.24679 0 0 255
-0.805893 1.70433 4.37246 0 0 255
0.259803 -0.189029 5.4317 0 0 255
-0.218485 -1.08815 5.27831 0 0 255
-0.766173 1.33996 4.89832 0 0 255
-0.133801 1.67923 5.59823 0 0 255
0.614854 -0.668677 5.05354 0 0 255
0.74735 -0.488105 4.71547 0 0 255
-0.534212 -1.38983 6.28816 0 0 255
1.00077 1.1262 6.30894 0 0 255
-0.51385 1.75384 5.14225 0 0 255
-0.418145 2.15091 6.44911 0 0 255
-0.175928 0.684152 4.49504 0 0 255
-0.44592 -0.906006 4.37176 0 0 255
-0.49533 2.10865 5.30535 0 0 255
0.275885 -0.0245617 6.05324 0 0 255
0.188069 0.665727 4.31941 0 0 255
-0.582489 1.06999 5.36893 0 0 255
-0.651501 0.753382 6.1335 0 0 255
0.918327 -1.49366 6.03936 0 0 255
-0.492661 1.91151 5.54569 0 0 255
-0.862883 0.148816 5.52548 0 0 255
0.918026 -0.876971 5.71415 0 0 255
0.929012 1.43498 5.93883 0 0 255
0.141331 -2.03742 5.88735 0 0 255
-0.11129 0.753523 4.29378 0 0 255
0.900277 1.59946 5.44938 0 0 255
-0.271201 1.77799 6.24941 0 0 255
-0.942108 -1.09642 4.98398 0 0 255
-0.296814 0.203374 5.26363 0 0 255
-0.707889 -0.479644 5.44007 0 0 255
-0.773955 -0.806069 4.62593 0 0 255
-0.648617 -1.40905 4.39487 0 0 255
0.111105 -1.05139 5.69858 0 0 255
-0.443224 -0.445753 4.63906 0 0 255
0.186475 0.796739 5.37662 0 0 255
-0.174013 -2.09165 4.73096 0 0 255
0.50302 1.46259 4.71421 0 0 255
-0.683408 -0.203728 5.72577 0 0 255
-0.136279 0.555156 4.49971 0 0 255
0.465063 2.00927 4.97173 0 0 255
-0.798696 0.0138922 4.66053 0 0 255
-0.289422 1.42466 5.82545 0 0 255
0.965185 1.35736 4.39624 0 0 255
-0.466085 -1.86395 6.49629 0 0 255
0.998401 -0.441806 4.99636 0 0 255
-0.164463 1.07547 6.38842 0 0 255
-0.162338 -0.148784 6.22276 0 0 255
0.359443 2.05096 5.01543 0 0 255
-0.945274 1.55475 4.39686 0 0 255
-0.13701 -1.2654 4.50893 0 0 255
-0.639373 1.70822 5.35588 0 0 255
-0.703898 1.86986 4.44469 0 0 255
0.0579936 0.852114 4.41226 0 0 255
0.622777 -0.160381 5.41508 0 0 255
0.042486 2.01814 6.45128 0 0 255
-0.294588 1.93219 5.02407 0 0 255
-0.130311 -1.02289 6.0193 0 0 255
0.189692 1.45261 5.43905 0 0 255
-0.440417 -0.14441 5.06833 0 0 255
0.0808936 1.34412 6.2378 0 0 255
0.885069 1.35287 5.57086 0 0 255
-0.948781 -1.68699 6.24173 0 0 255
0.259262 -1.27684 4.40913 0 0 255
-0.996453 -1.47572 4.73097 0 0 255
-0.412465 0.00620006 5.008 0 0 255
0.645068 1.77394 5.70637 0 0 255
-1.02683 -1.29292 5.07996 0 0 255
-0.669426 0.649393 4.73592 0 0 255
-1.03304 1.35026 4.7589 0 0 255
0.56356 0.127626 5.76689 0 0 255
0.805596 0.0151017 5.61996 0 0 255
0.499193 1.67593 6.375 0 0 255
-0.869075 -2.00952 5.55794 0 0 255
-0.348695 -0.768296 4.71573 0 0 255
0.472716 -0.719975 6.41184 0 0 255
-0.925434 -0.846945 4.68095 0 0 255
-0.275793 0.00557634 6.39363 0 0 255
-0.535479 0.908074 6.17186 0 0 255
-0.527612 -0.6908 5.28105 0 0 255
0.854365 0.4794 5.10718 0 0 255
0.108126 -1.79379 4.50417 0 0 255
0.644036 -1.67532 5.11381 0 0 255
0.102424 0.715254 5.88011 0 0 255
0.0108994 1.22885 4.43172 0 0 255
1.04469 -1.48613 5.52878 0 0 255
-0.742579 0.327608 5.78871 0 0 255
-0.765504 -1.61606 5.4203 0 0 255
0.0742442 -0.296916 5.64373 0 0 255
1.00152 -0.781965 6.31107 0 0 255
1.05008 -0.96994 5.03681 0 0 255
-0.768731 1.25533 6.44114 0 0 255
-0.588982 -1.27151 5.11825 0 0 255
0.384589 -0.987234 5.89581 0 0 255
-0.174848 -0.0282796 6.19924 0 0 255
0.0794956 0.102488 5.22761 0 0 255
-0.518212 -1.12299 6.12515 0 0 255
0.000253048 -0.901405 4.55124 0 0 255
-0.630305 0.940333 4.60267 0 0 255
-0.0296203 -0.292897 4.61592 0 0 255
0.0308728 -0.735722 4.77347 0 0 255
-1.03604 -0.0968281 5.54224 0 0 255
0.657033 -1.30025 6.29713 0 0 255
0.660482 -0.775503 5.84057 0 0 255
0.25082 1.09455 4.59396 0 0 255
-0.0200725 0.587758 4.85947 0 0 255
-0.983158 0.488336 6.46755 0 0 255
-0.537771 -0.811895 6.19532 0 0 255
-0.747548 -1.87891 4.92191 0 0 255
0.100115 0.56212 5.08848 0 0 255
0.229199 1.78675 4.55361 0 0 255
-0.33777 0.817627 5.00623 0 0 255
1.01152 0.278615 4.60492 0 0 255
0.69477 1.73055 5.31829 0 0 255
0.43501 -0.888618 4.45027 0 0 255
-0.000271878 0.354898 5.2513 0 0 255
-0.454423 1.25898 5.98027 0 0 255
-0.184758 -1.83518 5.69222 0 0 255
0.945914 1.02727 5.00733 0 0 255
0.76002 0.339059 5.063 0 0 255
-0.0540417 -1.61141 6.32011 0 0 255
1.04131 -2.01979 4.61008 0 0 255
0.732127 -1.9446 5.02812 0 0 255
0.851187 0.149366 4.30234 0 0 255
-0.534693 1.21966 5.35411 0 0 255
0.898918 -1.21329 4.70289 0 0 255
-0.647664 -1.66771 6.48592 0 0 255
0.276842 0.960838 5.76457 0 0 255
-0.577715 -1.65554 6.04148 0 0 255
-0.851184 0.337198 5.44918 0 0 255
0.323424 -1.66375 5.32299 0 0 255
0.689339 -1.4794 5.87769 0 0 255
-0.163293 -1.48039 5.00735 0 0 255
-0.31225 -0.57871 5.75864 0 0 255
0.854873 0.928147 5.61773 0 0 255
0.372556 1.90086 6.34062 0 0 255
0.54685 0.557212 4.33867 0 0 255
-0.888812 1.55964 5.84941 0 0 255
1.04437 -0.795958 4.71344 0 0 255
0.391394 -0.545555 5.45592 0 0 255
-0.972865 -0.167899 5.96577 0 0 255
0.629696 -0.558304 4.67263 0 0 255
-0.330247 1.92526 5.44339 0 0 255
0.808734 -0.586451 6.00148 0 0 255
0.850711 0.985451 5.75074 0 0 255
-0.560807 -1.92999 6.29394 0 0 255
0.13605 1.33209 6.3015 0 0 255
-0.229243 2.05957 5.89978 0 0 255
-0.308398 1.71454 5.26356 0 0 255
-0.219572 1.62096 4.81137 0 0 255
-0.074134 0.180135 4.8669 0 0 255
0.804608 -1.66796 4.45801 0 0 255
0.025826 -1.01879 5.84868 0 0 255
-0.503764 0.119493 5.66281 0 0 255
-0.668488 -1.84226 5.31253 0 0 255
0.250354 0.333294 4.99078 0 0 255
-0.681048 1.43446 6.51651 0 0 255
-1.0455 -1.62765 4.49876 0 0 255
-0.173486 0.374334 6.12332 0 0 255
0.315447 -0.0649842 5.56011 0 0 255
0.899937 0.0419161 4.92692 0 0 255
-0.802235 0.432542 4.45049 0 0 255
1.03244 1.73095 6.08529 0 0 255
-0.212447 -2.01812 5.76046 0 0 255
0.531167 0.98196 5.43395 0 0 255
-1.05204 1.20104 6.37613 0 0 255
0.0543744 -1.50342 6.29323 0 0 255
-0.519503 -1.10151 5.82704 0 0 255
-0.726834 1.09898 5.07407 0 0 255
0.784033 1.02583 4.62446 0 0 255
0.523657 -1.76763 6.01871 0 0 255
1.00194 1.85583 6.57811 0 0 255
0.393629 1.2211 5.47118 0 0 255
0.437922 -2.15347 5.60864 0 0 255
-0.043498 1.01462 5.08585 0 0 255
0.334076 1.49885 5.4791 0 0 255
-0.491416 -0.224591 6.10603 0 0 255
0.0200111 -2.11434 4.58702 0 0 255
0.802015 -1.71438 6.48053 0 0 255
-0.860168 0.637772 5.65534 0 0 255
0.855377 1.93563 5.53726 0 0 255
-0.361238 0.746283 5.35536 0 0 255
0.0802816 -0.254468 6.12896 0 0 255
0.362701 -0.747438 5.05545 0 0 255
0.0108043 1.84299 4.68893 0 0 255
0.625718 -0.906253 5.13622 0 0 255
-0.254832 -1.95425 5.3226 0 0 255
0.418928 1.15674 6.23535 0 0 255
0.56127 -1.63467 5.73221 0 0 255
0.235997 -0.943953 5.17502 0 0 255
-0.598162 -1.37627 4.44502 0 0 255
-0.175865 1.75169 6.25856 0 0 255
-0.401615 -0.124267 6.17218 0 0 255
-0.0101996 1.14418 5.28392 0 0 255
0.246592 -0.0974973 5.37915 0 0 255
0.674158 -0.136076 4.42799 0 0 255
0.426725 0.0364408 5.31108 0 0 255
0.272385 0.973978 5.93067 0 0 255
0.600881 -0.435369 5.42127 0 0 255
-0.162632 -1.46938 6.21156 0 0 255
0.642535 -2.15771 5.57836 0 0 255
-0.122105 0.457902 4.68404 0 0 255
-0.651914 1.27018 5.0854 0 0 255
0.422306 -1.91284 5.72263 0 0 255
0.222636 0.863498 5.10591 0 0 255
0.214807 -0.320927 5.50309 0 0 255
0.832985 1.03339 4.50184 0 0 255
0.434903 1.62707 4.43669 0 0 255
-0.440591 0.0728754 5.08036 0 0 255
-0.746458 -0.69045 5.04802 0 0 255
-0.908678 -0.355009 5.17008 0 0 255
-0.866105 -0.0126208 5.24419 0 0 255
-0.176559 -0.91353 4.282 0 0 255
0.585041 0.565413 5.08228 0 0 255
0.652642 1.03956 5.26322 0 0 255
-0.761786 -0.689483 5.74869 0 0 255
-0.504891 -1.81597 5.96039 0 0 255
0.746164 0.732686 5.81616 0 0 255
0.391302 1.75277 5.80307 0 0 255
-0.850691 1.55689 6.53507 0 0 255
0.636541 -1.42771 5.53099 0 0 255
0.569769 -2.16744 5.69978 0 0 255
0.954202 0.266416 5.55709 0 0 255
0.269539 -1.75162 5.63204 0 0 255
-0.0116133 -1.10307 5.39563 0 0 255
0.446462 0.393765 5.86303 0 0 255
0.780729 1.44649 5.28121 0 0 255
-0.191199 -0.67579 5.86433 0 0 255
0.411823 0.376216 4.84743 0 0 255
0.993937 -0.639385 5.64243 0 0 255
-0.997884 0.152819 4.29696 0 0 255
-0.667867 0.887997 6.41111 0 0 255
0.672335 0.582594 5.83357 0 0 255
0.423593 -0.763558 4.75724 0 0 255
-0.367045 0.389406 5.27947 0 0 255
-0.275018 -1.65183 6.02787 0 0 255
-0.0540831 -1.85688 5.01877 0 0 255
0.498417 0.0927051 4.77471 0 0 255
-0.971097 1.17233 4.70932 0 0 255
-0.277597 -1.89449 5.10084 0 0 255
-0.875669 -0.492724 5.6035 0 0 255
0.130776 -1.04887 5.49776 0 0 255
0.00116928 -0.448909 6.01117 0 0 255
0.162967 1.5614 5.71764 0 0 255
0.112845 0.0772838 5.1734 0 0 255
-0.132454 -0.285133 6.14657 0 0 255
0.0547201 1.78587 6.31671 0 0 255
-0.371819 -0.717353 6.33832 0 0 255
1.02305 0.611055 5.6632 0 0 255
1.01187 1.96046 4.95291 0 0 255
0.693507 -0.634219 4.43372 0 0 255
-0.534755 1.84461 5.03347 0 0 255
0.340287 -0.728793 5.38712 0 0 255
-0.348852 -0.331738 4.72928 0 0 255
0.438098 -2.11933 5.44053 0 0 255
0.249665 -1.22276 6.06868 0 0 255
-0.862786 -1.61152 4.62033 0 0 255
0.167794 1.76397 5.46203 0 0 255
0.301729 1.46503 5.1428 0 0 255
-0.0794725 0.0210621 5.25324 0 0 255
0.00945184 -1.60392 4.31375 0 0 255
0.164769 1.75783 4.40944 0 0 255
0.888552 1.77331 4.74894 0 0 255
-0.265266 0.578273 5.55355 0 0 255
-0.694847 1.95032 6.15701 0 0 255
-0.160826 -0.0492829 5.31097 0 0 255
-0.268146 -0.403324 4.74773 0 0 255
0.421741 -1.85792 5.24574 0 0 255
0.196228 1.59534 4.50539 0 0 255
-0.0596036 1.37295 5.49326 0 0 255
0.385594 1.52738 4.31761 0 0 255
-0.105245 0.865956 4.87033 0 0 255
-0.68525 1.33436 5.34956 0 0 255
-0.930043 -0.883253 6.12016 0 0 255
0.465528 1.7703 4.9723 0 0 255
0.555412 1.83737 5.67501 0 0 255
0.209209 0.144483 5.64172 0 0 255
-0.521294 -0.551105 5.4627 0 0 255
0.44068 -1.81031 5.48062 0 0 255
-1.03414 1.92884 6.34923 0 0 255
-0.949528 1.92783 4.50541 0 0 255
0.137596 -0.813828 5.77123 0 0 255
0.928935 -0.319662 4.91256 0 0 255
0.540113 1.62737 5.16979 0 0 255
-0.402554 -0.191881 5.454 0 0 255
-0.253544 1.509 5.83526 0 0 255
0.27758 -1.8426 5.80842 0 0 255
-0.580074 -1.31476 4.94691 0 0 255
0.618261 -0.310095 5.07629 0 0 255
0.519808 -1.89205 4.78274 0 0 255
-1.04448 0.745775 6.24035 0 0 255
-0.867952 1.17917 5.32714 0 0 255
0.394693 -0.680506 6.26066 0 0 255
-0.0575981 0.583652 4.39334 0 0 255
0.214869 0.133491 6.17227 0 0 255
0.81963 1.4942 6.1847 0 0 255
-0.77526 0.646415 5.94264 0 0 255
-0.355136 -1.47368 4.67122 0 0 255
0.801519 0.547382 5.85288 0 0 255
0.417657 -1.87465 4.27704 0 0 255
0.393616 1.20527 5.83856 0 0 255
-0.0965737 0.782227 6.28597 0 0 255
-0.99946 0.53237 5.47871 0 0 255
-0.470695 1.0903 4.92876 0 0 255
-0.131885 -0.58652 6.02883 0 0 255
-0.45667 0.393674 5.40511 0 0 255
-0.646401 0.206159 5.94876 0 0 255
-0.124708 1.23777 5.7592 0 0 255
0.256888 -0.824674 4.91343 0 0 255
0.372544 0.957066 5.02453 0 0 255
-0.617896 -0.135407 6.18165 0 0 255
0.572366 0.634919 5.38139 0 0 255
0.0369616 -1.35165 4.29314 0 0 255
0.447909 1.12682 5.14306 0 0 255
0.995842 -0.610462 5.08709 0 0 255
0.0925891 -1.81926 4.27299 0 0 255
-0.375854 0.267169 4.54934 0 0 255
-0.968098 0.36113 4.41354 0 0 255
-0.819262 -0.183831 6.39389 0 0 255
-0.79982 -0.298258 4.27893 0 0 255
-0.981603 -0.957657 6.27561 0 0 255
0.0839434 -2.13096 4.85855 0 0 255
0.0570774 1.57437 6.37556 0 0 255
0.582827 -1.84888 4.62289 0 0 255
-0.288346 0.768332 4.43182 0 0 255
-0.597179 -1.17914 4.43552 0 0 255
0.808659 1.47669 6.00368 0 0 255
0.0448412 -1.95861 5.21383 0 0 255
-0.708411 -0.441 5.26715 0 0 255
1.0218 -0.0286522 5.87073 0 0 255
0.721416 -1.77185 4.49146 0 0 255
0.385709 -1.65746 4.79797 0 0 255
-1.05469 1.3334 6.1457 0 0 255
0.75816 -0.224144 6.12289 0 0 255
-0.367426 1.11288 5.30979 0 0 255
0.885655 0.597055 5.21672 0 0 255
-0.167756 -1.09535 5.97407 0 0 255
-0.149045 0.907951 6.23496 0 0 255
0.360442 -1.99416 5.52244 0 0 255
-0.060658 0.794751 4.61927 0 0 255
-0.518852 0.563639 5.56521 0 0 255
-0.366141 -1.80163 5.11006 0 0 255
-0.751781 -1.35053 6.07413 0 0 255
-0.735906 -1.68339 4.29073 0 0 255
-0.791721 -1.756 4.38856 0 0 255
-0.610811 -0.919674 5.2085 0 0 255
0.993725 -0.867538 4.67075 0 0 255
-0.069121 0.236947 4.55094 0 0 255
-0.491347 0.970251 5.79418 0 0 255
0.398494 0.409844 5.09262 0 0 255
0.124871 -1.77655 5.75991 0 0 255
-0.924861 1.56784 6.45259 0 0 255
-0.715083 0.862543 6.34005 0 0 255
0.727799 -1.03396 4.71843 0 0 255
0.579975 -1.05197 4.85945 0 0 255
0.0644188 0.325771 4.87783 0 0 255
0.761645 0.630362 4.32584 0 0 255
-0.743967 -1.84979 6.34209 0 0 255
0.111581 -1.21937 4.6795 0 0 255
-0.102854 -0.0207543 4.3227 0 0 255
0.838249 -1.43343 5.58858 0 0 255
-0.446799 -1.15503 6.06874 0 0 255
0.104322 -1.29431 6.02189 0 0 255
-0.156996 1.40114 5.15483 0 0 255
-0.243819 -1.92238 5.60077 0 0 255
-0.114467 0.826251 5.29193 0 0 255
-0.535363 -1.55251 4.32353 0 0 255
0.707396 2.15924 5.01112 0 0 255
0.693511 1.85155 5.22776 0 0 255
-0.345089 1.90901 4.41734 0 0 255
-0.602014 1.31141 5.54577 0 0 255
-0.0825764 -1.6388 5.3921 0 0 255
0.193358 -2.01501 6.34536 0 0 255
-0.112082 -0.0561362 5.15677 0 0 255
0.732735 -1.93913 6.24784 0 0 255
0.50605 -1.10839 4.38885 0 0 255
0.34112 -0.596544 4.36104 0 0 255
-0.761297 -0.151124 4.86879 0 0 255
0.137475 1.28333 5.27056 0 0 255
0.858973 -0.0610905 4.76202 0 0 255
-0.968401 -1.62084 5.24352 0 0 255
-1.01873 -1.8891 5.86185 0 0 255
-0.36707 -0.473197 4.44317 0 0 255
0.166467 -1.85041 4.77921 0 0 255
-0.677095 1.83096 5.11306 0 0 255
0.30191 1.18291 6.32028 0 0 255
-0.0214527 1.73918 5.10285 0 0 255
0.722857 -0.832252 6.4 0 0 255
-0.311646 0.0206426 5.52963 0 0 255
-0.0353163 0.975716 5.48223 0 0 255
0.266575 1.16832 4.37379 0 0 255
0.619579 -0.512733 6.06825 0 0 255
0.494318 -0.173027 4.46219 0 0 255
-0.616966 1.05575 5.45885 0 0 255
-0.288216 1.42918 6.04303 0 0 255
-0.777604 -0.781303 5.8695 0 0 255
-0.949871 0.510215 6.52187 0 0 255
0.33999 -0.0201562 4.46592 0 0 255
0.598454 -0.261003 4.7395 0 0 255
-0.245314 0.388811 5.14395 0 0 255
-0.810839 0.537366 5.18733 0 0 255
-0.148464 1.55212 6.20848 0 0 255
-1.01099 -0.468816 4.56246 0 0 255
0.106937 1.84642 6.08012 0 0 255
-0.407533 0.556604 5.67535 0 0 255
0.647105 1.93721 5.96612 0 0 255
-0.0773393 -1.20065 5.10711 0 0 255
1.01828 0.754516 5.51042 0 0 255
-0.0859674 -0.763487 5.6598 0 0 255
-0.467863 -0.437443 5.39152 0 0 255
-1.06005 1.7575 4.88255 0 0 255
-0.469828 0.418453 4.90416 0 0 255
0.6892 1.77214 5.66116 0 0 255
-1.01164 -0.117914 5.82297 0 0 255
-0.000320474 -2.03408 4.65852 0 0 255
-0.414241 1.88825 4.79424 0 0 255
0.265869 2.04126 6.43305 0 0 255
0.68318 -0.126261 6.05578 0 0 255
0.62809 1.53483 4.97747 0 0 255
-0.474026 -2.09748 4.36333 0 0 255
0.582751 -0.833067 6.38016 0 0 255
-0.352862 0.0474796 5.60232 0 0 255
-0.697561 -1.1465 5.84148 0 0 255
0.647568 -0.236305 5.23113 0 0 255
-0.793571 -1.22037 6.29757 0 0 255
-0.660047 -0.179963 4.8227 0 0 255
0.538092 1.22507 5.75398 0 0 255
0.225088 -1.07186 4.93106 0 0 255
0.841236 -2.00604 5.16427 0 0 255
-0.577257 -1.01287 5.53643 0 0 255
-0.880502 0.684666 5.88055 0 0 255
-0.0567663 0.170805 6.45166 0 0 255
-0.66173 -0.000728946 4.91105 0 0 255
-0.0954085 1.01261 5.57538 0 0 255
-0.606654 -0.942939 6.35239 0 0 255
-0.938776 0.182501 4.50286 0 0 255
1.00433 -0.591373 5.25305 0 0 255
1.01368 0.797284 6.1314 0 0 255
0.634925 0.597881 5.21008 0 0 255
-0.971098 1.0083 6.04201 0 0 255
-0.091185 0.390522 5.96178 0 0 255
-0.102831 -0.642935 4.29171 0 0 255
-0.591393 -1.02664 4.68603 0 0 255
0.514295 -0.727562 4.3069 0 0 255
0.278527 1.08095 4.92534 0 0 255
0.179773 -1.13237 5.13483 0 0 255
1.02457 -1.064 4.57626 0 0 255
-0.0245496 -0.578632 5.76569 0 0 255
-0.936881 -1.40245 5.45838 0 0 255
0.264192 2.01238 4.32999 0 0 255
0.416461 1.87836 4.34695 0 0 255
0.801632 -1.04351 4.442 0 0 255
-0.145989 1.01108 5.61122 0 0 255
-0.3372 -0.0722657 4.70293 0 0 255
-0.753725 -1.30126 5.33709 0 0 255
0.924925 1.24754 6.08543 0 0 255
0.583423 1.12255 5.06325 0 0 255
-0.930414 -1.25454 4.98667 0 0 255
0.38826 0.765678 4.82624 0 0 255
-0.17885 0.978888 4.32907 0 0 255
0.623004 1.35834 6.3713 0 0 255
