ply
format ascii 1.0
element vertex 502
property float x
property float y
property float z
property uchar red
property uchar green
property uchar blue
end_header
0 0 0 255 255 255
-0.952294 -0.279182 0.123261 255 255 255
-0.29924 0.198177 3.28289 0 0 255
-0.466683 0.699516 3.35661 0 0 255
-0.281752 -1.2104 4.82203 0 0 255
0.586755 -0.0288507 4.35235 0 0 255
0.375727 -1.22278 3.1428 0 0 255
0.601915 -0.728537 3.37272 0 0 255
-0.0222235 0.996183 3.44821 0 0 255
-0.672197 1.29748 4.41024 0 0 255
0.714493 1.00556 3.53309 0 0 255
0.689671 -0.790771 3.86853 0 0 255
0.0552567 -1.37795 4.22369 0 0 255
-0.521595 0.151857 3.28294 0 0 255
0.77243 -0.727521 4.1316 0 0 255
-0.0241187 -0.653151 3.74863 0 0 255
-0.704737 1.24235 3.34215 0 0 255
0.603101 -0.338287 3.80127 0 0 255
0.517719 -0.777273 3.13183 0 0 255
0.204417 0.343169 3.92753 0 0 255
0.435894 1.05671 3.3363 0 0 255
-0.748623 0.363109 4.78474 0 0 255
0.009146 1.51451 3.51092 0 0 255
-0.213147 -0.413961 4.10433 0 0 255
0.126816 1.41627 4.49179 0 0 255
0.605901 1.40596 3.15489 0 0 255
-0.640137 -1.12338 3.43048 0 0 255
0.66384 1.04628 3.6297 0 0 255
-0.0216488 -1.24366 3.43761 0 0 255
-0.356563 -1.37183 3.91222 0 0 255
-0.37427 -1.5074 4.1132 0 0 255
0.564456 -1.19791 4.55671 0 0 255
-0.222501 -1.16011 3.11231 0 0 255
-0.0406723 0.890128 4.58809 0 0 255
-0.473442 -1.18579 3.82876 0 0 255
-0.294468 -0.0437807 4.10142 0 0 255
0.190231 0.392909 4.38794 0 0 255
0.233921 -1.43785 3.25235 0 0 255
-0.130982 -1.04168 3.36541 0 0 255
0.189398 -1.41121 3.33999 0 0 255
0.160145 -1.49045 4.59932 0 0 255
0.48936 0.260833 3.567 0 0 255
0.0413921 0.682618 4.81916 0 0 255
-0.794709 0.965419 4.56382 0 0 255
-0.486585 0.657783 4.3915 0 0 255
0.346186 -0.459768 3.97581 0 0 255
-0.425711 -0.437878 3.21879 0 0 255
-0.0987666 -0.13201 4.57825 0 0 255
-0.598592 -1.27423 3.172 0 0 255
0.265826 -0.108963 4.52521 0 0 255
0.627028 0.124075 4.72992 0 0 255
0.61521 -0.453948 4.57089 0 0 255
-0.666338 -0.647765 3.52823 0 0 255
-0.556493 1.07987 3.81999 0 0 255
-0.31726 -0.0466695 3.4012 0 0 255
0.332848 0.967438 4.03713 0 0 255
-0.545609 -1.2314 3.18525 0 0 255
0.457675 -1.14134 3.447 0 0 255
-0.192319 -0.934054 4.42684 0 0 255
0.0436294 0.597878 3.25555 0 0 255
0.334217 0.117075 4.51858 0 0 255
0.668 -0.486746 3.33955 0 0 255
0.584543 -1.1202 3.68596 0 0 255
-0.793694 0.235976 4.14624 0 0 255
-0.198718 1.35826 4.32817 0 0 255
-0.0625277 -0.485316 3.22267 0 0 255
-0.316751 0.101133 4.15613 0 0 255
0.223477 -0.368657 3.30861 0 0 255
-0.18127 -0.140336 4.6285 0 0 255
-0.758542 0.362523 3.49198 0 0 255
-0.386036 0.136166 3.48215 0 0 255
0.152866 -1.19847 3.69895 0 0 255
-0.484321 -0.910504 3.54065 0 0 255
0.20802 0.294172 3.40709 0 0 255
0.514057 0.377849 3.18902 0 0 255
0.664955 0.314007 4.24833 0 0 255
0.709378 0.0814543 4.1316 0 0 255
-0.521933 1.37811 3.75485 0 0 255
-0.571917 1.20368 3.41339 0 0 255
0.342073 -0.809784 3.83409 0 0 255
0.570247 -0.881509 3.74257 0 0 255
-0.786209 -0.61055 4.52235 0 0 255
0.461899 0.914663 4.00822 0 0 255
0.435387 -0.481216 4.26313 0 0 255
0.417667 -0.392388 3.69864 0 0 255
0.733686 1.57804 4.62336 0 0 255
0.210326 0.103786 4.02448 0 0 255
-0.714025 1.42935 4.75103 0 0 255
-0.216913 1.28497 3.99648 0 0 255
-0.578004 0.45415 4.08861 0 0 255
-0.590168 0.93686 4.30874 0 0 255
-0.424505 0.849357 4.43471 0 0 255
0.723884 -0.662757 4.62665 0 0 255
-0.660402 -0.817049 4.67979 0 0 255
0.504371 -0.226336 3.8684 0 0 255
-0.630107 -1.42154 3.22638 0 0 255
-0.774675 -0.702875 4.8176 0 0 255
0.329695 -1.52701 3.9911 0 0 255
0.138119 -1.52533 4.22167 0 0 255
-0.309116 -0.0992589 3.74725 0 0 255
-0.739446 1.4393 3.65656 0 0 255
-0.294973 0.903341 4.24724 0 0 255
0.0185739 -0.680983 4.42808 0 0 255
-0.103993 -0.125159 4.36921 0 0 255
-0.750267 -0.730911 4.60251 0 0 255
0.325456 -1.41353 4.28238 0 0 255
-0.0916303 -0.0393454 3.52415 0 0 255
0.592982 -0.622266 3.32576 0 0 255
-0.220282 0.864221 3.89812 0 0 255
-0.028033 1.26902 4.32591 0 0 255
-0.687323 -1.52978 4.4635 0 0 255
-0.441766 0.0521497 3.9047 0 0 255
-0.328147 0.0709507 4.07967 0 0 255
-0.157143 0.111461 4.24661 0 0 255
-0.318877 -1.20726 3.87154 0 0 255
0.398647 0.118195 4.47722 0 0 255
0.0409451 0.0819573 3.7681 0 0 255
-0.403026 -0.659026 4.0339 0 0 255
0.32729 -1.21584 3.5786 0 0 255
0.678307 -0.692616 3.18313 0 0 255
-0.54136 -1.43391 3.20223 0 0 255
0.494523 -1.21016 4.64839 0 0 255
-0.416424 -0.410221 3.42286 0 0 255
0.0554393 1.21845 3.12231 0 0 255
0.37198 -0.859987 3.56614 0 0 255
-0.333479 0.846738 4.15655 0 0 255
0.321424 0.0645019 3.69706 0 0 255
-0.0209157 1.4606 4.56043 0 0 255
0.112879 -0.666057 4.70266 0 0 255
0.118231 1.12337 3.86319 0 0 255
-0.126896 1.37014 4.50639 0 0 255
-0.377269 1.50982 3.21898 0 0 255
-0.687339 -1.36954 4.39613 0 0 255
0.708705 -0.569316 4.53136 0 0 255
-0.685991 -0.0485798 4.44496 0 0 255
0.122037 0.852265 3.73642 0 0 255
0.721859 -1.36251 4.20048 0 0 255
0.498212 0.79809 3.63677 0 0 255
-0.66674 0.341797 3.73963 0 0 255
0.493345 0.146591 4.45341 0 0 255
-0.765041 0.463477 4.6817 0 0 255
-0.748005 -1.57854 4.47335 0 0 255
0.614648 1.09766 3.53302 0 0 255
-0.398567 -0.0110473 3.99269 0 0 255
0.679029 -0.968975 4.05913 0 0 255
0.546278 1.01657 3.58221 0 0 255
-0.039303 -0.786707 3.68031 0 0 255
0.40307 0.987641 3.49674 0 0 255
0.656628 -0.746006 3.39222 0 0 255
-0.0854483 1.04763 4.38557 0 0 255
0.193509 -0.338638 3.70894 0 0 255
-0.434942 0.394826 4.5497 0 0 255
0.718929 0.522357 4.13546 0 0 255
0.541824 0.270191 4.61396 0 0 255
0.0453477 -0.0649751 4.10502 0 0 255
0.491143 -1.22798 4.03372 0 0 255
0.413852 -0.811125 3.66412 0 0 255
-0.221714 0.856231 4.62469 0 0 255
0.0738356 0.903882 3.36169 0 0 255
-0.505951 -0.582004 4.23595 0 0 255
0.671591 -0.29692 3.59194 0 0 255
-0.535501 -0.4842 4.04053 0 0 255
0.326557 -0.574752 3.33063 0 0 255
-0.526896 1.02391 4.65696 0 0 255
0.0305972 -0.259503 4.83492 0 0 255
-0.221245 -1.13803 3.10183 0 0 255
0.689816 0.863158 4.73346 0 0 255
0.542163 1.48015 3.50247 0 0 255
-0.67452 0.80035 3.60692 0 0 255
0.218224 0.357532 4.79885 0 0 255
-0.431926 -1.04233 3.6201 0 0 255
0.504723 0.767416 4.30127 0 0 255
0.246278 -1.40491 4.71016 0 0 255
-0.223968 -1.21382 3.56786 0 0 255
-0.469121 0.67762 4.79546 0 0 255
-0.227843 0.238339 4.76272 0 0 255
0.166263 0.400228 4.01554 0 0 255
-0.380039 -1.4505 4.49516 0 0 255
0.33411 -0.711358 4.79018 0 0 255
-0.240536 -1.09806 4.42853 0 0 255
-0.5976 0.647852 4.28275 0 0 255
0.581038 1.5408 3.37168 0 0 255
-0.574005 0.190677 4.11997 0 0 255
0.493606 -0.0956112 4.45535 0 0 255
0.557349 1.00228 4.65987 0 0 255
0.405907 -0.717694 4.79038 0 0 255
0.736256 -0.801934 3.72 0 0 255
0.211319 0.885451 3.46018 0 0 255
0.36203 0.168749 3.87389 0 0 255
-0.377154 -0.945619 4.34231 0 0 255
-0.117284 0.270825 3.38357 0 0 255
0.368285 -1.57961 4.44922 0 0 255
0.34208 0.777105 3.48577 0 0 255
0.63095 0.638198 4.0288 0 0 255
-0.401514 -0.0220806 3.24253 0 0 255
0.535432 -1.28719 3.97063 0 0 255
0.0628532 -0.898249 4.07701 0 0 255
0.419646 -1.52755 3.86 0 0 255
0.702883 1.07835 3.32444 0 0 255
-0.248544 -0.235516 4.56037 0 0 255
-0.234065 -0.834389 4.15616 0 0 255
-0.125709 0.900148 3.64582 0 0 255
0.26614 1.22261 4.20677 0 0 255
0.0166277 1.01312 3.85021 0 0 255
0.730354 0.440245 3.22795 0 0 255
-0.289693 -0.23053 4.2879 0 0 255
-0.759241 0.691545 4.36892 0 0 255
0.737543 -0.390333 4.41071 0 0 255
-0.472218 -1.58969 3.88376 0 0 255
-0.359683 0.30297 3.75812 0 0 255
0.469525 0.734029 4.69342 0 0 255
-0.0916019 0.602161 4.70732 0 0 255
-0.701176 -1.56518 3.14042 0 0 255
-0.120469 0.973794 3.96771 0 0 255
0.199649 0.721952 4.37138 0 0 255
-0.000721201 1.13771 4.66364 0 0 255
0.169408 0.920018 3.5136 0 0 255
-0.511696 -1.47822 3.57923 0 0 255
0.31849 -0.777384 4.31007 0 0 255
-0.232033 0.84737 4.63853 0 0 255
-0.391431 -0.660931 4.51295 0 0 255
0.322243 -0.602052 4.78884 0 0 255
-0.439674 -1.52819 4.81518 0 0 255
-0.140123 1.32349 3.24517 0 0 255
-0.348509 0.00084096 4.85453 0 0 255
-0.550781 1.14403 3.24749 0 0 255
-0.558309 0.69392 3.29386 0 0 255
-0.664226 1.26056 3.11836 0 0 255
0.607517 1.05067 3.39779 0 0 255
-0.486621 -0.823779 4.48767 0 0 255
0.7727 0.243383 3.62565 0 0 255
0.599287 0.597382 3.20308 0 0 255
0.748455 1.21333 4.1979 0 0 255
-0.480228 1.07079 4.59889 0 0 255
0.254722 -1.51354 3.24965 0 0 255
0.612366 -0.925183 3.2765 0 0 255
0.000812735 -1.03788 3.68965 0 0 255
-0.379041 -1.11624 3.17824 0 0 255
0.681511 -0.573997 4.54075 0 0 255
0.259288 -0.473236 4.25094 0 0 255
-0.33963 0.714207 3.25905 0 0 255
-0.718204 -0.239642 4.03367 0 0 255
0.101222 -0.879074 4.64178 0 0 255
0.175239 -1.43855 3.64768 0 0 255
-0.621339 0.088284 3.7128 0 0 255
0.25598 0.226575 4.71573 0 0 255
-0.571746 -1.52852 3.55998 0 0 255
-0.127889 1.51229 3.93297 0 0 255
-0.329908 -0.943659 4.21502 0 0 255
0.181072 0.811966 3.19692 0 0 255
-0.51919 -0.963847 4.67758 0 0 255
0.752429 -1.3118 4.67689 0 0 255
0.0164158 -0.908013 3.62176 0 0 255
0.165782 0.959269 3.30078 0 0 255
0.446762 -1.46311 4.02771 0 0 255
-0.50591 -0.924806 3.58834 0 0 255
0.759338 -0.661596 3.67981 0 0 255
-0.456363 -1.41012 3.69312 0 0 255
-0.139765 0.52163 4.27648 0 0 255
-0.334382 0.646937 3.34399 0 0 255
0.623951 0.701607 3.77037 0 0 255
-0.147366 0.998874 4.83211 0 0 255
0.595439 1.31887 4.15226 0 0 255
-0.658661 1.07842 3.65393 0 0 255
0.550939 0.487954 4.78047 0 0 255
-0.553895 -0.422164 3.4974 0 0 255
-0.441357 1.44406 4.60165 0 0 255
0.41559 0.250392 3.98106 0 0 255
-0.764692 1.22128 4.44567 0 0 255
0.16542 -0.0562896 4.49439 0 0 255
-0.667068 0.374699 4.20334 0 0 255
-0.181775 -0.40237 3.3525 0 0 255
0.556397 -0.454865 3.87882 0 0 255
-0.326226 0.77576 3.33375 0 0 255
-0.431527 0.654898 3.5452 0 0 255
-0.290066 -0.417883 3.70358 0 0 255
-0.547591 -1.37178 4.66841 0 0 255
-0.533237 -0.97511 4.55374 0 0 255
0.567903 1.09155 3.67385 0 0 255
0.414862 -1.09912 3.34743 0 0 255
0.419043 0.00228587 4.48988 0 0 255
0.195799 0.417193 4.08972 0 0 255
0.756979 -1.19675 3.31629 0 0 255
-0.165002 0.277806 3.99617 0 0 255
-0.577954 -0.490449 4.15863 0 0 255
0.306899 -1.14133 3.60839 0 0 255
0.75957 1.21135 3.8317 0 0 255
-0.0506272 -0.384981 3.91798 0 0 255
-0.370114 0.340555 4.48208 0 0 255
-0.399925 -0.115843 4.38481 0 0 255
0.239797 -0.194198 3.55384 0 0 255
0.358755 1.30217 3.82546 0 0 255
-0.0131132 1.34613 3.41506 0 0 255
-0.492332 0.910281 3.10348 0 0 255
-0.195042 1.11103 4.47982 0 0 255
-0.417136 -0.448388 4.79698 0 0 255
-0.767929 -1.47692 4.58855 0 0 255
-0.425343 0.546513 3.49547 0 0 255
0.490671 1.06696 4.09811 0 0 255
-0.542977 -0.907069 3.12668 0 0 255
0.000367491 0.246052 3.24978 0 0 255
-0.133139 -1.23199 3.86528 0 0 255
0.0958334 0.859803 3.66507 0 0 255
0.0976382 -1.61103 4.49136 0 0 255
-0.34673 1.474 4.5361 0 0 255
-0.769087 -0.260851 4.42421 0 0 255
0.0207515 -0.538983 4.76713 0 0 255
0.181155 -1.09416 3.61686 0 0 255
0.643297 0.0531857 3.94854 0 0 255
-0.217612 1.36985 3.58476 0 0 255
-0.145068 -0.76362 4.17718 0 0 255
-0.728105 1.2644 4.65011 0 0 255
0.0720668 -0.0529656 4.16706 0 0 255
-0.255429 -0.527891 3.27019 0 0 255
-0.579519 -0.278521 4.29609 0 0 255
0.188624 -1.4396 3.46271 0 0 255
0.450692 -0.698395 3.90736 0 0 255
-0.581903 1.14595 4.5229 0 0 255
-0.223889 -1.44806 4.13049 0 0 255
-0.42472 -1.49757 3.21693 0 0 255
0.584926 -1.41102 4.40424 0 0 255
0.233264 -1.27356 3.55864 0 0 255
-0.0590408 1.27218 3.84529 0 0 255
0.0834077 -1.45187 3.4517 0 0 255
0.461976 0.735784 3.31971 0 0 255
0.0912724 0.0884202 4.16866 0 0 255
-0.329201 -0.786431 3.16196 0 0 255
-0.593755 1.07533 4.32979 0 0 255
0.351093 0.601433 3.84433 0 0 255
-0.770011 0.42512 4.27096 0 0 255
0.299697 -1.42903 4.60464 0 0 255
-0.416721 0.485089 4.34604 0 0 255
-0.69669 -0.522165 4.71234 0 0 255
-0.540911 0.435825 4.43923 0 0 255
0.0384875 0.274909 3.52158 0 0 255
0.0784934 -0.294338 4.51021 0 0 255
0.647575 1.48448 4.58289 0 0 255
0.360622 -0.615745 3.76471 0 0 255
0.415401 -0.830267 4.78066 0 0 255
-0.543779 -0.424884 3.29513 0 0 255
-0.537361 -1.19414 3.53579 0 0 255
-0.565587 -0.163668 4.72841 0 0 255
-0.731243 0.987698 3.90683 0 0 255
0.372084 -0.804154 4.49475 0 0 255
-0.450866 1.34575 3.14173 0 0 255
-0.537051 0.000739382 4.33232 0 0 255
-0.170039 0.396886 4.34187 0 0 255
0.0274217 0.489241 4.17327 0 0 255
0.13083 1.02092 3.75822 0 0 255
-0.680296 0.702374 3.25778 0 0 255
0.298367 -0.895031 4.73418 0 0 255
0.301461 -1.42992 3.21856 0 0 255
-0.415677 1.2791 3.68247 0 0 255
0.785597 0.01435 3.5764 0 0 255
0.0691899 1.51503 3.9819 0 0 255
-0.639734 0.835649 4.45071 0 0 255
-0.0253832 1.18277 3.91573 0 0 255
-0.427502 0.119469 4.45947 0 0 255
-0.777522 -0.295625 3.47386 0 0 255
-0.715145 -0.523108 3.29079 0 0 255
-0.614304 -1.35501 4.79138 0 0 255
-0.224375 0.400581 3.1333 0 0 255
0.350202 -0.26906 4.60787 0 0 255
-0.447787 -1.59839 4.29526 0 0 255
0.108277 -0.599174 4.50003 0 0 255
0.61147 1.57737 4.68484 0 0 255
0.759418 -0.747802 4.26489 0 0 255
-0.264742 1.05868 3.57791 0 0 255
-0.0240059 0.212777 3.5925 0 0 255
0.262018 0.262581 4.63799 0 0 255
-0.342248 -1.11676 4.38124 0 0 255
-0.446665 1.49194 4.66107 0 0 255
0.41113 -0.630679 4.61824 0 0 255
-0.301025 1.57438 4.4751 0 0 255
-0.541887 1.05867 3.77997 0 0 255
0.432603 0.347162 4.53038 0 0 255
-0.536782 -1.55353 4.50348 0 0 255
-0.584302 0.550986 3.23345 0 0 255
-0.424947 -1.48051 4.08637 0 0 255
0.563655 0.935414 4.18045 0 0 255
0.678453 0.325259 4.05193 0 0 255
0.122742 -0.676998 3.72703 0 0 255
-0.574641 -0.00954769 4.80386 0 0 255
0.501168 0.756166 4.34918 0 0 255
-0.516089 0.399151 3.38863 0 0 255
0.323453 0.971714 4.13584 0 0 255
0.136521 -1.11016 3.12595 0 0 255
-0.424292 0.536791 4.63925 0 0 255
0.612992 0.67454 3.35162 0 0 255
0.767683 -0.653403 4.05823 0 0 255
-0.572947 0.87213 3.50891 0 0 255
-0.0826292 0.361976 4.77636 0 0 255
0.538688 0.956016 3.39022 0 0 255
-0.605248 1.28823 4.41162 0 0 255
-0.511443 0.0231542 3.40776 0 0 255
-0.542344 0.909961 3.20255 0 0 255
-0.482046 1.49232 4.25645 0 0 255
0.211722 -0.691904 3.23844 0 0 255
0.547971 -1.1908 4.84734 0 0 255
0.0143057 0.218882 3.17113 0 0 255
0.757309 -0.170828 3.96068 0 0 255
-0.626983 -1.48478 4.80799 0 0 255
-0.666511 1.053 4.31102 0 0 255
-0.41008 -0.127441 4.59311 0 0 255
0.440186 0.278321 4.59725 0 0 255
-5.9715e-05 -0.719157 4.08536 0 0 255
-0.771311 -0.245908 3.89908 0 0 255
-0.0945308 -0.564506 3.94147 0 0 255
0.613941 0.732598 4.1551 0 0 255
-0.763314 0.778986 3.54613 0 0 255
0.779271 -1.40914 4.59448 0 0 255
0.775683 -1.35464 4.10261 0 0 255
-0.576182 0.0866085 3.35667 0 0 255
0.434 0.233864 3.7588 0 0 255
-0.70569 -0.503011 3.28335 0 0 255
0.611766 -1.0514 4.39731 0 0 255
0.605103 0.747158 4.6406 0 0 255
-0.343048 -0.535839 3.95425 0 0 255
-0.688621 0.785607 4.39512 0 0 255
0.451624 -1.04613 3.84347 0 0 255
0.0878827 -0.429706 4.494 0 0 255
-0.652915 1.46956 3.57061 0 0 255
0.685461 0.705855 4.57056 0 0 255
0.159218 -0.874036 4.04391 0 0 255
-0.0690127 -0.147967 4.5361 0 0 255
0.0374735 1.28638 4.31844 0 0 255
0.606652 -0.704241 4.42586 0 0 255
0.255518 -1.0733 4.7073 0 0 255
-0.331808 -0.969874 3.64393 0 0 255
0.0251391 -1.50865 3.8555 0 0 255
0.308048 -0.169561 4.28678 0 0 255
-0.465014 0.529347 3.403 0 0 255
-0.50147 0.0269391 4.11903 0 0 255
-0.464369 -0.662527 3.75174 0 0 255
0.010161 0.479589 4.78782 0 0 255
0.389488 0.673321 3.73226 0 0 255
-0.254102 -0.566966 4.49602 0 0 255
0.706558 -0.0230883 3.42015 0 0 255
0.385811 1.02009 3.94355 0 0 255
-0.657454 1.12168 3.55736 0 0 255
0.730812 0.18352 3.14077 0 0 255
-0.0504049 -0.470956 3.8674 0 0 255
0.714738 1.05483 3.57179 0 0 255
-0.288361 -1.16628 4.28556 0 0 255
-0.142877 -0.48455 4.66953 0 0 255
0.73772 -0.368383 3.61086 0 0 255
-0.635969 -1.03291 4.24056 0 0 255
-0.291305 -0.253236 3.72926 0 0 255
-0.0808903 1.22057 4.6859 0 0 255
-0.477914 -1.28042 4.00101 0 0 255
0.527656 0.791302 3.67733 0 0 255
-0.11374 1.03171 3.49039 0 0 255
0.188133 0.645011 3.31191 0 0 255
0.425543 0.742578 4.07402 0 0 255
0.563702 -1.29668 3.70372 0 0 255
-0.25302 -1.48398 4.6675 0 0 255
0.364328 0.318944 3.8898 0 0 255
0.255091 -0.597903 4.04913 0 0 255
-0.0351318 -1.31522 4.10828 0 0 255
-0.312167 0.412376 4.08834 0 0 255
0.474547 -0.416023 4.54495 0 0 255
-0.286613 0.913498 4.1097 0 0 255
0.21685 -0.244282 4.15368 0 0 255
-0.68612 0.612811 3.12191 0 0 255
-0.583633 -1.4114 3.84623 0 0 255
-0.0288173 0.0466539 4.54048 0 0 255
-0.307617 0.102372 4.28877 0 0 255
-0.471264 1.47395 4.6124 0 0 255
0.398027 -0.882762 4.47045 0 0 255
0.0995851 -1.55703 4.13145 0 0 255
-0.0892158 -0.948268 4.54798 0 0 255
-0.519473 1.03009 4.1192 0 0 255
-0.32144 1.43549 4.61164 0 0 255
-0.357197 0.0754199 3.57911 0 0 255
0.186509 1.13231 3.41335 0 0 255
0.0937295 -0.603584 3.28996 0 0 255
-0.0417235 0.836539 3.89598 0 0 255
0.791667 1.36455 3.42665 0 0 255
0.699198 -0.367801 3.92027 0 0 255
-0.172535 -1.35864 4.18865 0 0 255
-0.0481196 1.1782 4.48663 0 0 255
-0.446703 0.79154 3.36466 0 0 255
0.609225 1.05509 4.37654 0 0 255
0.750945 0.495201 3.52144 0 0 255
-0.472787 -0.717102 4.44407 0 0 255
-0.278656 -0.565906 4.74223 0 0 255
0.0316463 -1.20144 4.80058 0 0 255
-0.0369178 0.586047 4.20386 0 0 255
-0.701831 0.647179 3.16428 0 0 255
0.735423 -0.446282 3.48916 0 0 255
0.486195 0.074435 3.79126 0 0 255
0.772892 -1.01629 3.86489 0 0 255
0.494479 -0.482893 4.74342 0 0 255
0.552587 0.354433 3.79352 0 0 255
0.5109 1.1535 4.69835 0 0 255
-0.654215 -0.308916 4.17968 0 0 255
0.466354 -1.08566 3.89874 0 0 255
-0.0103958 1.45066 4.32433 0 0 255
-0.625181 -0.738139 4.6416 0 0 255
-0.728103 1.52081 4.17995 0 0 255
-0.721006 -1.28105 4.20169 0 0 255
0.764784 -0.364984 4.8226 0 0 255
