ply
format ascii 1.0
element vertex 504
property float x
property float y
property float z
property uchar red
property uchar green
property uchar blue
end_header
-0.127052 -6.83445 -186.066 0 255 0
13.2768 -7.88089 -198.455 0 255 0
11.8342 -7.56654 -205.31 0 255 0
25.7754 -24.2422 -197.451 0 255 0
-19.0358 -37.8856 -41.6312 255 255 255
5.34324 42.8412 -28.9564 255 255 255
46.657 59.1968 23.1805 255 255 255
51.4365 13.4346 26.678 255 255 255
-44.6853 23.8143 34.4604 255 255 255
-15.4365 -22.5755 -4.0798 255 255 255
38.4544 21.4547 55.3903 255 255 255
-0.263188 -69.2949 21.1686 255 255 255
-49.3228 23.1112 -23.5792 255 255 255
-12.3624 9.98277 38.524 255 255 255
-14.8868 67.0448 -33.4751 255 255 255
28.8355 -21.7834 59.2651 255 255 255
-14.8524 6.74818 -26.8011 255 255 255
30.7976 36.2862 28.6363 255 255 255
-39.464 48.5843 51.6393 255 255 255
31.3323 -39.7939 -11.4502 255 255 255
-27.7536 27.7584 -37.1654 255 255 255
-4.10977 13.7904 -59.2415 255 255 255
22.0305 -27.7409 31.1714 255 255 255
32.4532 -15.2786 -24.1748 255 255 255
-64.9053 -54.2124 -1.86137 255 255 255
-1.26305 -22.0795 -34.1484 255 255 255
-30.2212 52.6451 -62.6857 255 255 255
-49.5853 -15.9551 56.0474 255 255 255
-39.0731 1.04296 22.5677 255 255 255
10.1612 -34.6012 -46.9796 255 255 255
-5.33492 -49.8756 -12.274 255 255 255
-60.2005 -53.9979 42.1836 255 255 255
33.5189 -39.0293 38.7628 255 255 255
34.5255 -35.5366 -46.9156 255 255 255
-16.6384 -29.4999 10.9162 255 255 255
8.39271 46.9646 4.92255 255 255 255
56.5004 -2.36443 -6.03987 255 255 255
-19.1333 -34.508 60.4821 255 255 255
40.0315 6.39956 -21.2846 255 255 255
-46.1727 -50.8429 -23.674 255 255 255
72.0413 -44.9929 27.2737 255 255 255
57.4379 -63.7879 30.8165 255 255 255
61.9067 -58.1998 13.496 255 255 255
57.1767 46.9429 56.8897 255 255 255
-29.6438 60.8286 67.8674 255 255 255
-20.8936 -0.203198 21.602 255 255 255
-60.0643 58.9302 35.3311 255 255 255
-32.6263 -34.4555 12.6589 255 255 255
-29.542 56.8165 14.7432 255 255 255
-51.8092 -28.8953 -38.0399 255 255 255
7.16681 -58.6235 -24.3067 255 255 255
-58.9536 -46.7317 -5.3294 255 255 255
-12.9072 -24.4503 -61.8261 255 255 255
44.7407 3.66452 -47.7941 255 255 255
50.0016 47.3581 18.3315 255 255 255
51.9923 -11.2125 -11.3785 255 255 255
32.2306 28.5428 -4.02116 255 255 255
50.9529 59.7455 48.125 255 255 255
68.021 28.9458 17.4727 255 255 255
-6.53082 -58.1083 -23.265 255 255 255
-9.56746 -61.4022 4.87867 255 255 255
-54.9401 -69.8369 -48.4784 255 255 255
-27.0987 -63.7251 21.2768 255 255 255
-55.779 53.7016 -7.14127 255 255 255
62.1989 -20.896 48.9148 255 255 255
-21.5813 28.2652 -51.0501 255 255 255
-19.2519 5.79597 -8.45089 255 255 255
-59.5594 -17.173 18.7989 255 255 255
-16.6468 -22.5365 3.15947 255 255 255
23.0069 -68.1363 49.0256 255 255 255
4.68375 11.9061 48.6848 255 255 255
-67.5314 23.9874 26.9544 255 255 255
-40.5259 -38.6749 -15.708 255 255 255
-1.55632 -32.0116 -51.16 255 255 255
-21.3375 31.1588 -35.559 255 255 255
9.01603 38.3781 -56.8405 255 255 255
21.1484 -19.6538 -16.2158 255 255 255
5.2799 62.4971 18.3111 255 255 255
12.1829 -45.2103 43.8317 255 255 255
59.4336 -15.3412 42.1281 255 255 255
28.0252 -67.9978 43.6501 255 255 255
-14.5333 60.9762 2.96917 255 255 255
-54.461 57.487 -17.5486 255 255 255
-33.3613 -8.94329 -13.6264 255 255 255
-51.4433 -44.1219 43.1927 255 255 255
54.251 -64.3771 -5.18608 255 255 255
44.1282 -42.9047 37.8162 255 255 255
49.58 40.6609 -41.8783 255 255 255
13.7124 41.7282 14.8596 255 255 255
-7.04166 51.5762 57.0461 255 255 255
6.74512 16.9547 -36.3852 255 255 255
37.7676 -42.1191 -35.0511 255 255 255
37.8109 -5.98477 63.7046 255 255 255
-43.0212 -29.6217 3.772 255 255 255
1.8139 9.57391 -0.444794 255 255 255
34.1487 -27.1313 37.3073 255 255 255
70.677 -54.3834 -40.9571 255 255 255
-50.5173 -21.9324 -26.703 255 255 255
30.0271 -0.674642 -28.1856 255 255 255
38.6748 37.6465 -43.9075 255 255 255
-23.8318 47.9733 -29.3984 255 255 255
-47.6676 31.7319 -0.329002 255 255 255
-48.3077 -54.6498 -1.07403 255 255 255
-5.41832 -49.4073 -20.7077 255 255 255
-9.70456 -48.9785 -5.18896 255 255 255
-11.7914 8.48688 8.41832 255 255 255
-56.3257 31.3592 -27.0588 255 255 255
18.8648 -43.4616 -25.1649 255 255 255
69.4612 62.421 29.1629 255 255 255
76.1833 -65.5836 -29.9707 255 255 255
-47.109 46.1845 -51.3267 255 255 255
57.6799 -11.0328 6.41002 255 255 255
-21.8637 9.57681 38.4003 255 255 255
-57.0399 20.7787 -33.2089 255 255 255
45.2362 71.3857 -53.866 255 255 255
17.2821 -15.1989 2.60626 255 255 255
9.05729 40.9616 -20.9719 255 255 255
20.5917 -51.4863 46.6781 255 255 255
15.532 31.4585 -36.4024 255 255 255
48.5966 -23.9824 -44.6514 255 255 255
-5.9691 46.947 49.047 255 255 255
24.0757 -46.2121 37.2213 255 255 255
-50.4141 27.555 63.4792 255 255 255
-18.4717 33.9562 2.53659 255 255 255
41.5886 -17.0298 -5.45059 255 255 255
-8.79393 31.0526 37.6185 255 255 255
-41.8459 -28.7193 10.9 255 255 255
17.1525 -33.1802 21.1793 255 255 255
-18.8218 19.6286 12.3663 255 255 255
57.613 47.7817 17.5305 255 255 255
-34.5469 -43.106 7.69865 255 255 255
-8.1593 33.0904 -27.9154 255 255 255
23.3973 -10.7611 44.4605 255 255 255
-22.766 -27.3647 3.95678 255 255 255
-44.7737 -55.869 16.5456 255 255 255
-0.610309 18.9845 24.6792 255 255 255
-53.8809 30.9418 -51.3692 255 255 255
33.3142 -16.8799 -37.3633 255 255 255
-11.2311 -45.9659 -4.97964 255 255 255
28.6061 -63.5233 38.9945 255 255 255
40.3552 -37.4867 56.9909 255 255 255
41.6738 -40.8155 -37.7325 255 255 255
36.2385 -26.3676 -27.7219 255 255 255
66.1367 -36.7142 -29.1096 255 255 255
-53.5268 68.8055 -30.574 255 255 255
-34.2428 -55.3432 -45.4199 255 255 255
-14.8267 -14.7132 27.2597 255 255 255
-1.19599 65.0747 -2.01789 255 255 255
43.6546 25.6407 15.3783 255 255 255
-25.8124 -23.4602 39.1013 255 255 255
-4.56657 -26.2666 -23.8093 255 255 255
-57.5805 5.25645 -25.036 255 255 255
42.0743 3.07545 15.3684 255 255 255
1.56337 -55.7118 -55.4099 255 255 255
63.616 -21.9879 39.4882 255 255 255
51.365 -33.7064 -29.1001 255 255 255
-54.1205 54.9712 -31.3855 255 255 255
68.4294 -27.3616 57.1323 255 255 255
46.7351 -40.61 -42.9471 255 255 255
-1.96482 -39.7101 20.7377 255 255 255
-46.099 32.8206 43.6332 255 255 255
62.314 45.3417 8.82072 255 255 255
1.47623 -55.0905 -4.25007 255 255 255
-0.520213 28.4529 -12.0934 255 255 255
-56.9003 -32.3577 46.3614 255 255 255
-41.7549 0.018638 -5.0494 255 255 255
12.1636 37.3182 -39.7833 255 255 255
-26.1545 -14.0013 22.3099 255 255 255
45.7515 -37.1544 -38.5888 255 255 255
35.053 -60.7622 -39.4915 255 255 255
-16.7772 53.9192 -30.8955 255 255 255
55.9211 -14.451 -56.5638 255 255 255
6.21181 36.9282 -14.4936 255 255 255
28.4272 -2.18979 -6.99084 255 255 255
62.1878 -14.6883 0.454409 255 255 255
40.4028 -40.4793 -59.2414 255 255 255
-46.6498 52.8793 -23.0181 255 255 255
-50.4095 3.19467 49.5996 255 255 255
31.1768 -13.4411 65.5514 255 255 255
8.47042 -30.63 -49.0106 255 255 255
-45.5222 -62.3478 -28.9911 255 255 255
-49.7713 -43.8526 -46.5792 255 255 255
-4.63769 -16.148 40.2332 255 255 255
21.8522 34.5766 -44.995 255 255 255
-18.1588 -15.0648 10.418 255 255 255
-9.65386 9.14564 -57.1946 255 255 255
52.3182 49.2246 -43.3084 255 255 255
-29.5834 14.1015 57.8731 255 255 255
36.448 0.995622 30.6157 255 255 255
-0.318732 0.0242793 -39.3298 255 255 255
-53.7049 -28.0341 -50.6233 255 255 255
-29.9547 56.0565 37.8272 255 255 255
53.3241 -32.5754 31.0159 255 255 255
42.6879 -60.5142 -51.7428 255 255 255
-34.8073 -5.01119 55.5573 255 255 255
57.5626 27.693 -34.0958 255 255 255
42.8091 -52.3341 -25.3061 255 255 255
25.4096 -22.8768 6.01953 255 255 255
69.0031 58.7077 -73.5379 255 255 255
-9.24027 17.2346 4.74422 255 255 255
-49.8305 27.9 54.4913 255 255 255
40.4433 30.6009 57.5606 255 255 255
-22.8381 51.4469 52.1598 255 255 255
42.03 -38.3846 -56.499 255 255 255
65.4263 6.92356 -46.2906 255 255 255
16.1613 -67.1551 52.9203 255 255 255
-19.2826 -57.6953 -14.276 255 255 255
28.7735 -3.78055 22.9366 255 255 255
21.0543 -55.2761 -25.5385 255 255 255
-33.5354 54.0125 53.9536 255 255 255
-4.58904 36.4997 55.1964 255 255 255
-49.1287 -14.4862 -14.8691 255 255 255
-33.063 -35.5809 44.4249 255 255 255
38.8875 -11.0426 -36.1254 255 255 255
-32.8567 -26.3618 -61.1121 255 255 255
-45.4402 -51.8968 -48.04 255 255 255
-36.5668 -0.655818 37.7766 255 255 255
53.4198 -53.289 21.6653 255 255 255
50.9625 10.3391 64.9281 255 255 255
-34.4968 27.0904 -13.3919 255 255 255
12.03 -63.1412 -53.6144 255 255 255
-70.1441 -38.8214 58.203 255 255 255
-43.1666 4.34841 50.5933 255 255 255
-23.3269 -52.193 -6.51671 255 255 255
-10.4793 -22.9499 21.3766 255 255 255
55.4059 -36.4078 20.4405 255 255 255
12.8876 43.1257 52.639 255 255 255
-9.00307 42.9503 -56.377 255 255 255
-36.5481 -48.0197 -7.787 255 255 255
-11.4375 43.7751 72.8688 255 255 255
27.3385 3.71113 24.937 255 255 255
-42.0508 -58.5095 9.89214 255 255 255
7.19193 -62.2606 -40.2907 255 255 255
-53.5791 8.34748 -55.6823 255 255 255
-40.83 8.20631 -30.0584 255 255 255
34.9805 -23.7679 4.6665 255 255 255
-35.3644 19.825 -37.133 255 255 255
-45.4264 -35.6408 43.882 255 255 255
-13.0193 -68.6164 31.562 255 255 255
59.3361 35.9787 -6.09435 255 255 255
-39.0871 11.9202 -31.0405 255 255 255
36.6141 -26.6951 13.861 255 255 255
38.7266 -33.8464 -6.68927 255 255 255
24.777 59.8749 -10.134 255 255 255
-31.6745 -23.2396 43.6925 255 255 255
30.6534 23.8119 -24.2493 255 255 255
50.9946 -63.7348 33.3396 255 255 255
27.3105 33.3082 -52.2231 255 255 255
29.2381 57.0728 26.2475 255 255 255
-49.078 10.0426 -7.54475 255 255 255
8.2269 -57.5197 8.69284 255 255 255
-12.541 41.9386 52.4639 255 255 255
-49.2457 64.7797 44.3722 255 255 255
68.1436 44.1954 -63.8509 255 255 255
61.2432 -42.4722 -59.6909 255 255 255
-37.8579 10.9716 -15.2481 255 255 255
16.2408 38.3773 -61.1705 255 255 255
10.0411 63.9119 -12.433 255 255 255
0.215612 -44.7912 12.1383 255 255 255
51.7375 53.6369 14.2431 255 255 255
-29.5717 -29.2642 -38.3053 255 255 255
46.5391 6.11458 -4.21757 255 255 255
-5.19246 13.8796 -18.855 255 255 255
-7.46415 -10.7146 38.7544 255 255 255
-14.7546 37.4385 4.42757 255 255 255
2.75144 -69.6797 -50.7175 255 255 255
-4.16037 -13.2233 24.725 255 255 255
-27.7002 24.95 4.49436 255 255 255
-48.1645 34.0621 -40.1695 255 255 255
33.2663 -59.3896 -66.9734 255 255 255
-50.8477 37.6902 34.9415 255 255 255
-18.958 60.6788 33.0363 255 255 255
57.8967 -63.6111 56.4218 255 255 255
-45.0763 36.2341 -44.7959 255 255 255
-20.0454 -15.8547 56.2683 255 255 255
-44.9099 29.406 29.4697 255 255 255
-21.2212 -40.1848 -37.2909 255 255 255
-43.2327 -39.2737 53.9395 255 255 255
-22.3863 39.9838 -16.9123 255 255 255
-35.3495 -28.1293 -9.29162 255 255 255
-31.4288 29.328 35.8059 255 255 255
-35.7101 -70.0142 62.7806 255 255 255
-35.38 -32.7254 -21.922 255 255 255
18.7998 24.4441 49.075 255 255 255
57.9308 -11.6009 -37.6402 255 255 255
-1.0302 46.1106 -13.8367 255 255 255
-62.8369 20.6779 -28.2409 255 255 255
-40.7058 -49.4126 36.8168 255 255 255
12.5757 32.6303 46.5753 255 255 255
-25.2004 6.37727 10.3532 255 255 255
-52.2487 -28.5846 69.1677 255 255 255
54.2489 20.2747 -14.047 255 255 255
12.7132 19.9371 -10.8029 255 255 255
-2.79001 30.7398 -7.28663 255 255 255
-0.554058 -10.7268 15.1815 255 255 255
-39.0622 29.7149 25.9447 255 255 255
39.1209 -26.6811 48.3044 255 255 255
-8.03218 59.7634 -33.6958 255 255 255
4.65398 47.5528 -33.9696 255 255 255
37.3508 12.4365 49.9754 255 255 255
30.7095 27.4704 -15.2045 255 255 255
26.9758 -7.57889 -45.9626 255 255 255
-38.4161 58.8553 -2.44421 255 255 255
40.824 -52.1371 25.1678 255 255 255
-10.1653 20.9299 25.5911 255 255 255
33.5555 41.0456 -52.8827 255 255 255
72.253 36.7911 -15.66 255 255 255
25.0406 12.6784 36.4382 255 255 255
-51.1989 9.65294 17.726 255 255 255
22.1208 52.3254 -15.4583 255 255 255
10.187 36.4163 71.7149 255 255 255
-10.7624 55.0798 75.8234 255 255 255
-2.71195 16.8286 67.7794 255 255 255
28.4797 30.9803 3.71992 255 255 255
73.9253 -46.5451 -68.1389 255 255 255
-2.55004 53.347 51.4559 255 255 255
27.5594 46.5321 14.8812 255 255 255
-57.18 54.1151 -46.6785 255 255 255
48.5872 55.6335 29.7214 255 255 255
-3.14277 -26.7057 -7.77267 255 255 255
13.5926 46.4226 42.6811 255 255 255
-24.1412 -58.8908 -46.9936 255 255 255
-9.69131 24.4103 10.9653 255 255 255
10.4773 5.69968 30.1864 255 255 255
10.823 -25.7325 -9.07456 255 255 255
60.4224 -19.5236 47.4888 255 255 255
-58.4344 -57.4538 4.15593 255 255 255
46.2941 2.71911 63.4759 255 255 255
-11.2335 24.6207 -39.1992 255 255 255
-23.7103 -4.77819 -6.4863 255 255 255
26.8536 -4.74814 34.1511 255 255 255
45.9575 -43.1746 18.8012 255 255 255
1.54863 -29.7257 -47.6882 255 255 255
-58.2307 -49.8723 68.3396 255 255 255
-19.466 6.25678 5.87787 255 255 255
-56.1898 62.8838 -23.0148 255 255 255
-24.5685 -17.0068 29.5337 255 255 255
32.5488 -35.252 -26.8786 255 255 255
-45.9143 42.5053 -33.0328 255 255 255
-37.8243 -8.9057 -42.6158 255 255 255
13.1881 -31.4964 16.8381 255 255 255
12.418 -23.8316 3.48869 255 255 255
-19.2211 -66.4614 11.797 255 255 255
57.9252 -75.6199 -31.7933 255 255 255
30.4531 -50.2877 54.8848 255 255 255
13.0641 -17.4841 -13.2062 255 255 255
-51.7248 27.2529 50.9694 255 255 255
36.5666 -27.1682 -19.8063 255 255 255
15.4185 -68.263 -49.0756 255 255 255
-24.3939 55.9244 -11.5815 255 255 255
-22.627 -2.57957 12.683 255 255 255
-30.2432 39.4723 18.7038 255 255 255
-21.7624 37.4817 -53.966 255 255 255
29.924 22.3914 -50.9139 255 255 255
-47.2584 42.5449 -13.0549 255 255 255
40.9252 -18.5328 37.5526 255 255 255
-32.334 -19.8798 -39.0263 255 255 255
6.23798 10.2683 -26.3979 255 255 255
23.0853 52.329 -31.7589 255 255 255
-32.8226 48.4786 11.6748 255 255 255
45.3694 -22.9314 -43.2424 255 255 255
-48.8316 65.286 16.4615 255 255 255
12.2958 -11.3215 20.0189 255 255 255
-29.2783 16.2013 12.6741 255 255 255
-29.7807 19.2892 -27.036 255 255 255
25.976 -65.0233 -33.9093 255 255 255
-45.2289 19.275 -61.7754 255 255 255
22.4176 -15.0081 -29.619 255 255 255
65.6784 24.605 49.2051 255 255 255
62.6283 -3.78246 -59.863 255 255 255
-44.7468 -42.2768 -29.2825 255 255 255
-8.64245 -39.2227 26.9149 255 255 255
-11.2084 -9.8542 -44.3845 255 255 255
37.353 8.77403 -48.0343 255 255 255
69.1654 -56.5901 59.15 255 255 255
-30.7413 7.50528 29.9582 255 255 255
-1.89268 -4.96823 -52.2005 255 255 255
52.4619 -1.07319 -12.0324 255 255 255
-13.1324 52.1889 17.1546 255 255 255
60.1889 -0.629323 47.4633 255 255 255
-17.29 39.2857 43.3832 255 255 255
62.8633 35.6948 3.06164 255 255 255
56.3565 52.847 60.6216 255 255 255
-25.2414 -39.1734 45.7507 255 255 255
22.3168 8.34492 63.5214 255 255 255
39.6632 30.6097 -28.7395 255 255 255
31.4043 37.295 -19.084 255 255 255
16.2754 23.0378 -25.5433 255 255 255
19.5132 -42.2427 -20.2579 255 255 255
49.8677 24.5727 22.1687 255 255 255
-50.1597 47.4768 52.1407 255 255 255
58.6259 -48.536 3.42081 255 255 255
40.4692 29.8682 -47.0168 255 255 255
-30.871 33.5553 -32.2316 255 255 255
29.3678 65.6779 -59.3097 255 255 255
15.5905 37.2209 -39.6296 255 255 255
-35.437 -53.5887 53.3832 255 255 255
-39.9311 -45.108 53.0305 255 255 255
-30.9017 4.60766 56.9272 255 255 255
48.9319 35.5906 -38.9503 255 255 255
-52.0518 17.0107 19.5701 255 255 255
54.8735 -31.3786 34.2279 255 255 255
54.5971 -42.2101 -16.4322 255 255 255
51.6685 35.1645 -53.8767 255 255 255
-58.5254 -59.9649 61.5713 255 255 255
57.672 47.5121 42.6389 255 255 255
-27.8795 -61.9191 -27.4158 255 255 255
-15.7417 39.662 -7.1233 255 255 255
-28.3043 6.89835 2.82931 255 255 255
7.61073 -10.7195 38.2903 255 255 255
22.6747 -3.30875 19.7147 255 255 255
1.28936 -31.2133 56.6799 255 255 255
49.8459 33.4994 29.0781 255 255 255
-35.0386 27.1192 52.9349 255 255 255
4.06639 42.3158 18.6147 255 255 255
58.9324 48.7779 23.3959 255 255 255
-0.656609 33.5535 58.7358 255 255 255
-18.8074 -35.0328 -47.877 255 255 255
-7.64225 64.5715 -26.829 255 255 255
10.1878 -33.8697 -31.2487 255 255 255
-18.5833 -12.2775 -18.9833 255 255 255
38.4915 -13.8618 7.42649 255 255 255
60.6559 -48.6934 -12.7378 255 255 255
9.50989 9.2117 -63.1417 255 255 255
-31.8111 -27.8013 -68.5632 255 255 255
54.1064 56.1763 60.5835 255 255 255
51.5751 17.8726 2.11177 255 255 255
-1.9899 -53.2898 -0.602979 255 255 255
58.9498 5.33898 -33.4324 255 255 255
27.2268 11.362 -20.1048 255 255 255
-39.499 43.2534 26.2006 255 255 255
-31.3404 -61.0515 -19.827 255 255 255
-53.8328 -70.9684 24.7746 255 255 255
-32.6684 27.357 -11.2203 255 255 255
1.51926 -24.2213 -12.8467 255 255 255
37.3751 -39.8992 -17.6522 255 255 255
-37.1118 15.1268 -3.45506 255 255 255
-68.187 -21.5181 -59.448 255 255 255
0.557404 -52.6034 33.6316 255 255 255
22.1399 55.9573 25.5472 255 255 255
-18.3942 -13.987 -65.1707 255 255 255
-48.3941 -56.4589 -54.5595 255 255 255
12.63 11.8743 39.5233 255 255 255
22.0873 39.923 41.5629 255 255 255
28.1962 -25.8901 -56.4249 255 255 255
-43.6986 5.80429 -12.8687 255 255 255
13.0474 -30.2219 -21.2745 255 255 255
-49.3272 -3.11491 -13.7503 255 255 255
24.2916 39.2945 6.6619 255 255 255
6.75145 15.0631 -2.15487 255 255 255
15.2236 -42.8959 -40.8894 255 255 255
-40.979 47.7316 36.2078 255 255 255
-4.09745 24.2325 -51.0669 255 255 255
15.7028 -39.6715 -38.3062 255 255 255
-11.4232 -65.3574 47.3132 255 255 255
13.9349 -28.9251 62.4763 255 255 255
-13.6089 -24.5365 -39.0858 255 255 255
36.2292 -41.6032 31.251 255 255 255
-27.4578 12.56 14.7264 255 255 255
-7.23713 -56.2236 -38.6755 255 255 255
-68.6597 -6.66032 -39.1946 255 255 255
-2.52843 23.0656 12.2755 255 255 255
-6.26757 -11.3055 28.3552 255 255 255
-6.95904 12.5862 -13.6306 255 255 255
-48.6445 -19.6372 -30.0744 255 255 255
-44.2366 18.801 28.2563 255 255 255
31.6866 45.9902 25.0409 255 255 255
61.0328 -63.9147 56.1075 255 255 255
3.10656 13.3052 40.2459 255 255 255
-53.3125 25.1475 -66.8981 255 255 255
14.2711 -42.7789 -29.9461 255 255 255
-27.129 -26.6993 51.8207 255 255 255
-1.23538 12.6348 2.67741 255 255 255
2.82807 20.3074 -13.6446 255 255 255
60.7149 18.665 28.5591 255 255 255
35.5404 12.251 57.5345 255 255 255
-38.3939 -60.5484 46.6292 255 255 255
-12.3153 -14.7341 -32.0391 255 255 255
24.1693 -42.405 -52.5391 255 255 255
65.5453 -2.74965 -27.1958 255 255 255
-20.1172 -18.7548 66.498 255 255 255
36.8728 15.2477 50.7262 255 255 255
-20.6174 -75.4039 -8.02344 255 255 255
59.0835 10.1639 -15.4577 255 255 255
33.3314 10.2406 -10.5926 255 255 255
-2.39778 15.7891 -14.5583 255 255 255
-34.3941 10.881 -7.65786 255 255 255
54.1255 1.73853 -53.9107 255 255 255
-8.92042 47.363 20.6377 255 255 255
17.5765 8.40814 54.1888 255 255 255
-52.9062 -58.0415 41.0277 255 255 255
-30.212 28.5462 -34.1751 255 255 255
45.4886 9.67919 -49.9723 255 255 255
58.544 -19.8786 -52.5468 255 255 255
63.9062 21.6385 -6.45352 255 255 255
39.0566 29.0383 -37.7552 255 255 255
-55.7408 -19.3127 -24.0552 255 255 255
46.5625 60.9717 28.1058 255 255 255
-33.6617 30.7606 55.6235 255 255 255
-39.364 -43.4391 34.3237 255 255 255
49.9264 6.051 -32.5305 255 255 255
32.1299 -40.3539 36.7686 255 255 255
-36.7983 -11.0522 59.7838 255 255 255
-6.94234 27.3909 13.5328 255 255 255
